ncols        320
nrows        37
xllcorner    630800
yllcorner    5192300
cellsize     50.000000000000
NODATA_value  -9999.00
2242.22 2230.55 2218.58 2208.13 2200.52 2191.45 2180.47 2169.01 2164.11 2160.31 2153.10 2147.69 2152.46 2165.88 2179.53 2179.09 2166.34 2159.56 2152.73 2148.09 2140.56 2119.26 2094.55 2061.24 2020.88 1986.43 1956.95 1935.09 1932.18 1938.08 1942.04 1948.86 1975.43 2018.50 2036.67 2051.66 2070.46 2108.48 2139.06 2164.60 2203.13 2238.01 2280.26 2327.83 2368.78 2401.73 2426.61 2447.89 2466.14 2481.15 2498.48 2526.11 2546.76 2563.62 2587.14 2613.95 2636.73 2656.53 2683.04 2716.14 2750.09 2779.34 2809.18 2835.50 2855.22 2874.64 2903.82 2940.56 2974.25 2987.66 3004.49 2993.04 2960.87 2936.56 2919.98 2912.53 2915.36 2920.13 2928.24 2935.62 2951.96 2980.45 3019.00 3066.99 3089.87 3089.09 3086.96 3082.15 3075.78 3065.29 3053.66 3050.01 3042.19 3043.61 3071.04 3092.69 3072.49 3037.35 3010.17 2999.94 2991.49 2997.42 3017.03 3049.46 3082.60 3118.63 3156.75 3185.94 3227.48 3284.58 3309.54 3309.23 3298.61 3276.62 3249.58 3235.53 3229.19 3220.65 3207.88 3197.69 3190.66 3185.01 3184.51 3180.59 3176.87 3180.31 3184.29 3188.08 3201.41 3226.04 3254.20 3302.70 3342.02 3359.21 3366.70 3372.33 3363.10 3351.98 3322.25 3299.50 3292.95 3288.94 3285.15 3279.40 3275.76 3276.65 3285.36 3309.03 3324.22 3328.12 3322.42 3323.49 3336.80 3329.70 3306.34 3284.96 3279.26 3253.54 3208.83 3183.88 3176.94 3174.79 3173.72 3171.70 3170.38 3171.70 3174.98 3178.68 3182.51 3190.13 3198.68 3209.37 3219.40 3225.58 3228.52 3229.97 3231.49 3232.42 3232.90 3234.47 3237.76 3242.77 3251.09 3272.83 3322.81 3376.61 3421.56 3405.53 3376.28 3364.95 3357.35 3358.05 3384.67 3430.32 3442.62 3452.33 3470.17 3492.01 3513.03 3535.47 3553.78 3572.07 3594.27 3594.70 3553.85 3503.61 3477.07 3464.45 3455.00 3446.49 3442.88 3444.18 3447.45 3452.36 3461.25 3472.49 3486.15 3504.14 3529.08 3558.14 3590.68 3619.26 3629.29 3627.04 3626.51 3631.87 3645.61 3675.26 3720.33 3741.69 3700.63 3648.54 3593.96 3535.48 3495.34 3474.82 3460.67 3443.10 3426.09 3413.61 3401.79 3385.48 3366.77 3346.38 3329.14 3314.32 3293.13 3270.40 3251.78 3234.95 3222.99 3215.88 3212.58 3213.20 3219.46 3233.40 3256.25 3288.18 3325.90 3340.67 3329.37 3304.31 3274.23 3243.97 3223.59 3199.77 3143.48 3100.97 3079.56 3064.43 3043.43 3025.88 3017.14 3009.79 2999.90 3000.46 3022.30 3050.66 3077.78 3109.67 3147.46 3180.18 3194.80 3181.33 3138.05 3087.26 3032.10 2995.35 2975.79 2961.39 2942.15 2925.12 2911.37 2890.61 2873.68 2862.94 2853.52 2851.40 2846.62 2829.69 2806.03 2784.80 2757.16 2733.33 2722.90 2714.83 2709.81 2714.88 2704.04 2682.08 2660.57 2641.06 2620.04 2607.68 2602.29 2593.81 2583.66 2575.05 2568.89 2560.21
2229.51 2219.84 2205.37 2194.08 2186.47 2176.88 2168.05 2162.69 2158.56 2154.45 2150.68 2150.75 2157.42 2168.41 2176.33 2173.50 2162.57 2156.42 2153.80 2156.39 2148.66 2122.41 2091.10 2057.72 2022.80 1992.26 1963.46 1939.67 1934.66 1940.69 1945.66 1950.33 1968.81 2012.83 2031.05 2047.18 2069.61 2101.52 2142.79 2176.95 2214.75 2250.31 2286.07 2321.97 2355.97 2385.87 2403.69 2424.18 2443.79 2459.37 2478.07 2503.24 2524.08 2540.05 2564.18 2594.01 2616.78 2639.18 2665.58 2691.23 2720.90 2747.67 2777.12 2805.68 2824.74 2850.09 2885.23 2924.96 2945.69 2958.43 2975.23 2971.19 2942.84 2916.69 2900.00 2889.62 2891.73 2895.61 2901.80 2906.50 2919.96 2946.40 2995.36 3035.02 3066.61 3078.42 3088.64 3091.12 3073.67 3052.57 3037.62 3037.60 3034.13 3030.30 3048.66 3079.98 3081.06 3051.54 3015.56 2997.51 2985.86 2985.76 3004.39 3031.14 3054.08 3083.27 3123.95 3171.70 3213.58 3247.03 3260.71 3267.41 3283.00 3288.22 3262.93 3250.88 3250.80 3248.58 3238.56 3227.79 3222.52 3217.54 3211.62 3205.30 3203.73 3206.91 3210.37 3216.10 3228.38 3248.87 3279.18 3328.22 3368.00 3375.22 3380.33 3373.96 3341.72 3312.28 3294.97 3284.45 3276.20 3267.66 3260.77 3255.58 3255.00 3257.50 3261.81 3274.35 3295.28 3317.19 3336.93 3350.60 3329.98 3300.22 3270.49 3239.91 3227.19 3223.45 3195.29 3169.28 3165.45 3164.31 3164.25 3163.81 3163.63 3164.66 3167.06 3169.46 3170.29 3173.07 3180.55 3192.12 3203.12 3208.57 3211.24 3214.43 3219.50 3222.82 3224.60 3227.14 3231.27 3236.72 3246.86 3286.39 3336.63 3375.07 3385.59 3361.63 3339.88 3335.55 3327.62 3324.49 3342.85 3389.52 3394.20 3395.76 3414.85 3446.37 3479.22 3501.54 3521.21 3533.90 3545.95 3565.19 3567.98 3527.99 3496.22 3480.81 3471.15 3461.67 3454.14 3452.36 3458.43 3468.99 3479.01 3496.66 3518.78 3541.88 3568.25 3597.70 3629.09 3647.69 3649.17 3642.80 3637.96 3640.75 3656.91 3687.67 3718.28 3727.14 3694.15 3639.85 3591.36 3538.54 3495.98 3473.02 3459.38 3446.37 3433.74 3420.95 3399.00 3380.53 3363.98 3342.11 3322.45 3306.36 3288.50 3267.35 3248.12 3233.46 3223.65 3216.46 3210.61 3206.86 3207.53 3215.71 3235.29 3264.47 3298.86 3312.95 3304.64 3290.88 3264.38 3229.50 3200.01 3176.57 3136.00 3103.12 3080.23 3060.64 3041.89 3025.12 3015.02 3010.36 2997.53 2990.94 3010.89 3048.21 3086.18 3123.65 3147.83 3149.15 3145.62 3144.79 3126.08 3075.65 3016.04 2979.63 2957.72 2941.03 2923.04 2902.62 2882.87 2864.59 2848.94 2838.32 2830.60 2830.33 2830.59 2815.13 2789.84 2763.65 2739.15 2713.65 2697.57 2687.94 2673.62 2671.54 2661.15 2642.04 2626.37 2609.68 2588.85 2580.57 2578.76 2571.90 2561.55 2551.84 2541.77 2531.74
2230.34 2215.53 2196.00 2181.69 2175.21 2167.92 2163.63 2160.19 2157.03 2155.68 2156.25 2158.88 2162.49 2169.29 2175.24 2173.77 2163.34 2159.34 2159.08 2158.11 2147.56 2123.94 2088.92 2058.12 2031.24 2002.66 1973.53 1949.11 1938.90 1940.04 1946.17 1952.07 1965.48 2004.88 2027.80 2037.13 2058.76 2093.79 2134.78 2179.46 2214.92 2246.55 2276.72 2307.13 2340.65 2375.71 2393.24 2401.82 2420.65 2439.72 2457.10 2476.06 2495.75 2516.37 2540.03 2569.59 2594.24 2619.36 2644.63 2667.63 2692.31 2719.23 2751.20 2775.69 2797.77 2833.54 2870.29 2901.23 2913.33 2930.04 2943.89 2942.71 2923.00 2901.36 2881.75 2870.47 2870.36 2872.65 2875.62 2879.69 2891.82 2914.32 2956.23 2988.97 3034.89 3062.79 3075.94 3091.51 3079.75 3051.07 3032.27 3024.73 3027.31 3025.84 3032.28 3057.82 3079.14 3062.07 3024.49 2998.61 2984.63 2980.38 2994.54 3014.08 3031.84 3052.05 3088.86 3145.19 3177.54 3197.95 3216.42 3229.70 3264.47 3300.18 3293.26 3281.14 3282.25 3286.23 3279.57 3264.76 3250.62 3239.09 3229.48 3225.55 3226.35 3227.05 3228.52 3232.01 3242.50 3263.66 3298.30 3334.78 3342.68 3339.44 3351.77 3356.44 3321.01 3287.14 3275.26 3269.06 3261.08 3250.15 3242.06 3239.01 3240.73 3245.32 3250.26 3255.82 3265.03 3280.90 3320.27 3343.88 3311.33 3271.64 3234.61 3208.01 3195.37 3186.66 3177.60 3158.72 3155.90 3155.42 3155.44 3155.80 3156.51 3157.24 3158.26 3159.50 3159.77 3159.69 3162.52 3172.53 3183.69 3187.39 3190.24 3196.63 3205.94 3212.33 3216.12 3219.71 3224.35 3231.26 3248.90 3294.35 3337.41 3371.35 3354.72 3329.48 3322.80 3316.44 3309.03 3308.17 3318.79 3350.28 3360.11 3370.53 3392.34 3429.91 3460.99 3482.43 3493.30 3493.36 3492.98 3509.97 3549.24 3550.40 3522.41 3504.84 3493.31 3479.83 3470.23 3462.57 3463.33 3460.60 3469.56 3502.37 3515.36 3534.20 3559.33 3593.32 3636.30 3664.06 3664.44 3655.03 3647.15 3648.61 3661.00 3672.03 3670.16 3663.93 3657.15 3618.28 3584.54 3548.17 3507.01 3478.41 3464.88 3456.67 3449.70 3438.09 3409.46 3374.57 3354.51 3332.47 3312.53 3296.45 3281.92 3265.86 3249.49 3235.81 3225.57 3217.17 3209.63 3203.60 3200.41 3202.96 3216.49 3239.93 3272.65 3292.47 3292.87 3284.61 3270.16 3226.63 3189.92 3165.22 3133.42 3104.30 3083.56 3062.26 3039.22 3020.10 3009.71 3006.68 2996.51 2987.50 3002.25 3040.18 3079.21 3115.14 3121.64 3113.12 3107.23 3106.22 3105.45 3066.52 3015.32 2969.49 2941.87 2927.07 2912.83 2896.26 2875.76 2856.72 2839.29 2826.57 2815.41 2813.71 2814.52 2795.95 2771.46 2744.99 2721.67 2699.76 2680.85 2664.44 2643.16 2634.38 2624.11 2609.44 2596.32 2584.72 2565.98 2557.37 2558.10 2550.81 2540.73 2529.51 2518.40 2506.16
2233.90 2213.26 2191.38 2176.65 2171.16 2167.11 2163.80 2161.43 2162.94 2163.46 2166.52 2170.35 2172.68 2177.44 2186.04 2187.41 2170.45 2164.77 2163.85 2161.16 2146.61 2120.26 2090.44 2066.59 2043.44 2016.48 1987.41 1963.86 1951.71 1945.75 1945.85 1952.34 1961.46 1978.44 1996.00 2010.61 2033.76 2074.87 2112.69 2157.06 2202.56 2236.87 2268.11 2299.45 2332.89 2366.69 2391.05 2395.18 2403.54 2423.03 2440.35 2456.97 2476.05 2494.91 2514.73 2540.67 2571.16 2598.90 2620.05 2643.33 2666.92 2694.11 2723.90 2747.50 2777.26 2812.38 2841.19 2866.15 2886.42 2904.79 2916.60 2920.45 2902.63 2886.32 2868.50 2857.73 2852.93 2851.74 2850.74 2853.72 2862.70 2878.06 2911.05 2947.69 3002.53 3038.63 3052.58 3073.92 3079.03 3054.50 3029.57 3010.35 3004.61 3007.65 3013.13 3020.62 3047.50 3068.48 3039.70 3007.67 2986.92 2977.65 2987.77 3002.63 3015.21 3024.09 3044.38 3099.23 3130.40 3154.58 3178.24 3212.87 3257.99 3280.41 3311.65 3335.51 3331.21 3327.31 3312.70 3290.26 3269.83 3254.35 3247.60 3251.01 3252.55 3248.86 3246.00 3247.05 3256.21 3278.85 3297.97 3300.00 3299.23 3295.72 3309.57 3326.04 3299.17 3264.96 3252.96 3246.41 3238.90 3229.24 3223.24 3223.46 3226.88 3232.07 3237.24 3241.62 3246.60 3254.73 3292.58 3332.71 3303.83 3259.77 3216.71 3190.36 3178.45 3169.80 3158.48 3149.24 3148.23 3147.86 3147.36 3147.93 3148.99 3149.63 3149.72 3149.83 3149.65 3148.52 3144.89 3144.28 3162.15 3175.54 3180.23 3185.82 3195.44 3203.42 3208.05 3211.91 3216.84 3229.40 3261.19 3302.72 3345.02 3359.81 3331.89 3320.10 3315.25 3309.42 3303.85 3301.77 3305.84 3319.41 3335.44 3352.71 3376.34 3417.04 3456.39 3469.47 3466.93 3462.94 3466.38 3478.01 3511.25 3525.45 3515.02 3502.53 3493.62 3463.46 3439.93 3424.91 3422.18 3414.56 3433.22 3463.22 3467.92 3487.19 3514.64 3550.31 3598.74 3644.57 3665.18 3661.54 3655.24 3648.81 3630.76 3619.54 3606.53 3592.73 3591.78 3583.11 3566.52 3549.08 3524.07 3496.88 3479.89 3470.46 3462.23 3450.18 3424.26 3385.12 3346.35 3309.93 3294.14 3283.80 3273.12 3262.86 3251.26 3238.83 3226.82 3216.47 3208.06 3201.11 3195.74 3193.86 3199.40 3215.15 3249.81 3282.05 3280.40 3268.56 3265.01 3230.17 3195.40 3172.15 3139.86 3102.37 3083.07 3065.77 3040.28 3013.09 3001.66 3001.22 2995.61 2985.89 2994.49 3021.79 3046.24 3081.21 3099.78 3092.27 3085.80 3084.49 3082.46 3057.10 3010.44 2966.97 2937.21 2924.45 2912.06 2894.84 2878.04 2855.93 2837.81 2819.00 2804.60 2801.93 2797.31 2776.03 2756.53 2735.57 2717.12 2699.88 2675.61 2648.50 2618.54 2599.11 2591.85 2580.09 2569.27 2561.90 2547.89 2538.59 2538.62 2529.54 2520.85 2511.52 2496.88 2478.85
2231.46 2209.00 2189.57 2177.21 2172.92 2168.29 2167.56 2166.30 2167.23 2168.90 2174.34 2178.74 2182.33 2188.62 2200.20 2197.00 2182.17 2175.55 2173.79 2170.48 2156.38 2129.51 2102.97 2083.25 2059.68 2032.81 2005.63 1982.98 1970.05 1958.90 1950.57 1953.71 1961.20 1970.21 1979.21 1988.42 2008.20 2049.33 2093.05 2136.43 2182.91 2226.21 2264.04 2293.09 2321.60 2350.44 2379.78 2394.35 2396.40 2409.75 2427.28 2441.57 2459.78 2477.57 2493.75 2514.00 2542.76 2574.01 2597.29 2619.95 2643.06 2669.98 2697.65 2725.77 2757.45 2786.67 2815.85 2847.96 2871.67 2881.17 2891.90 2897.61 2879.71 2867.58 2861.58 2855.32 2839.14 2832.00 2828.67 2828.79 2835.00 2850.87 2877.96 2923.26 2961.40 2990.35 3026.98 3053.95 3069.27 3057.87 3029.36 3002.06 2990.77 2983.09 2991.12 2996.93 3003.43 3043.98 3049.20 3015.24 2989.29 2977.41 2985.66 2998.18 3007.56 3013.59 3022.49 3049.78 3083.87 3114.56 3154.24 3195.56 3229.31 3254.53 3305.50 3362.16 3373.65 3359.76 3337.48 3311.44 3290.45 3279.99 3281.24 3283.01 3279.58 3273.09 3269.92 3274.00 3286.95 3296.64 3285.78 3277.51 3272.85 3267.47 3268.40 3282.12 3269.41 3243.12 3229.75 3221.44 3215.64 3211.52 3210.21 3211.92 3215.44 3220.34 3225.03 3228.11 3230.59 3233.56 3253.94 3299.52 3293.06 3252.06 3210.36 3174.59 3162.53 3157.02 3149.04 3143.15 3142.00 3141.31 3140.58 3140.80 3141.68 3142.03 3141.50 3141.07 3141.12 3140.10 3135.52 3134.04 3148.65 3167.00 3177.52 3184.06 3191.18 3197.13 3200.48 3203.00 3209.81 3236.26 3278.18 3319.43 3358.98 3350.85 3321.56 3312.34 3307.08 3302.71 3299.17 3298.07 3301.15 3309.17 3321.99 3339.94 3367.77 3406.08 3445.83 3452.44 3446.34 3447.70 3451.71 3458.91 3477.78 3477.40 3474.18 3451.51 3434.92 3413.34 3388.76 3371.92 3365.71 3370.89 3387.60 3410.70 3433.30 3459.48 3486.00 3518.57 3561.99 3600.16 3623.53 3635.04 3640.98 3626.57 3593.04 3570.27 3553.41 3539.87 3535.21 3538.67 3548.07 3544.41 3527.14 3506.38 3488.89 3475.19 3459.48 3434.80 3401.86 3365.77 3335.58 3306.54 3279.63 3266.31 3262.53 3257.83 3249.72 3238.17 3225.07 3213.14 3204.22 3197.33 3191.40 3187.75 3189.51 3201.47 3232.79 3274.17 3272.94 3254.25 3254.31 3241.13 3210.10 3180.22 3152.85 3104.43 3076.17 3058.61 3035.24 3008.54 2995.70 2994.89 2993.50 2983.77 2985.92 3004.52 3024.40 3055.60 3076.00 3071.97 3061.03 3059.40 3055.26 3049.33 3019.20 2990.41 2959.10 2937.64 2916.62 2889.39 2871.80 2855.02 2839.84 2824.04 2805.99 2794.75 2780.96 2760.69 2744.90 2731.08 2717.30 2701.02 2674.68 2637.90 2598.66 2572.79 2565.71 2555.13 2546.44 2541.04 2530.37 2519.70 2514.57 2508.76 2501.49 2490.35 2473.39 2454.75
2222.53 2203.59 2190.00 2181.88 2182.11 2180.48 2183.85 2175.41 2174.30 2179.53 2184.26 2188.45 2194.45 2200.93 2205.86 2204.38 2199.57 2197.86 2196.99 2186.29 2172.15 2148.92 2128.71 2105.43 2078.69 2051.36 2024.76 2002.95 1985.23 1970.37 1961.90 1961.12 1966.86 1978.72 2000.70 2010.36 2002.62 2028.40 2075.70 2120.85 2153.00 2194.88 2235.92 2272.23 2304.43 2335.29 2366.94 2391.94 2398.39 2405.56 2418.58 2430.58 2445.01 2462.38 2477.33 2493.29 2516.49 2546.44 2575.51 2600.84 2626.02 2652.33 2677.20 2707.06 2740.61 2775.04 2809.74 2839.78 2846.09 2854.06 2869.44 2874.83 2856.10 2840.17 2837.60 2840.21 2823.58 2812.50 2811.74 2808.45 2812.91 2830.75 2854.44 2892.33 2936.19 2987.83 3025.06 3036.58 3048.09 3046.87 3030.85 3002.00 2986.85 2973.89 2971.76 2974.51 2965.55 2988.64 3029.17 3015.39 2987.14 2975.68 2984.45 2995.39 3002.59 3008.30 3018.19 3036.11 3059.22 3087.34 3130.95 3167.43 3201.93 3244.98 3300.06 3360.12 3399.90 3390.05 3366.13 3342.53 3327.58 3318.28 3313.35 3306.69 3303.01 3305.37 3315.80 3324.15 3319.79 3297.19 3278.00 3268.60 3261.75 3254.25 3246.13 3242.84 3243.51 3228.67 3211.22 3203.29 3200.24 3199.65 3200.82 3203.38 3207.15 3211.27 3214.42 3215.77 3215.90 3215.84 3220.53 3246.70 3263.79 3233.94 3206.70 3166.06 3146.93 3145.55 3141.16 3137.51 3136.42 3135.90 3135.20 3135.32 3136.10 3136.35 3135.45 3134.44 3134.46 3134.71 3133.91 3133.93 3141.12 3155.91 3168.69 3176.78 3183.59 3188.61 3190.99 3191.62 3203.19 3250.80 3305.38 3353.89 3369.13 3337.83 3308.30 3300.90 3297.43 3294.71 3293.15 3294.00 3297.38 3302.74 3310.05 3332.02 3360.65 3387.31 3426.36 3433.53 3428.72 3430.65 3435.40 3442.89 3455.52 3437.59 3422.19 3404.64 3380.32 3360.57 3340.11 3331.02 3334.26 3346.42 3363.69 3385.49 3409.32 3435.09 3458.74 3486.62 3522.20 3553.92 3570.97 3592.33 3603.03 3589.78 3556.81 3529.64 3510.00 3496.39 3492.02 3500.29 3526.29 3540.11 3529.90 3507.97 3490.02 3474.37 3454.99 3431.84 3402.65 3368.84 3338.89 3310.14 3279.14 3255.48 3251.81 3251.55 3245.04 3233.47 3220.06 3207.53 3198.29 3191.48 3185.83 3181.62 3181.15 3190.56 3221.73 3263.97 3261.68 3241.04 3240.46 3229.15 3218.76 3183.99 3153.03 3106.96 3070.27 3046.40 3024.13 3003.15 2989.49 2988.91 2989.39 2984.42 2981.76 2995.29 3013.30 3029.97 3027.85 3027.89 3032.07 3035.81 3027.43 3030.29 3032.87 3020.98 2990.53 2964.07 2931.03 2895.88 2866.10 2847.78 2836.84 2827.01 2806.00 2782.22 2758.90 2743.77 2730.26 2713.79 2698.00 2677.56 2655.75 2621.75 2587.57 2559.39 2546.95 2536.05 2527.31 2523.21 2515.54 2507.36 2498.50 2491.65 2482.14 2469.62 2453.22 2435.17
2225.36 2203.99 2194.48 2189.68 2198.55 2198.21 2194.22 2193.99 2203.99 2206.82 2207.94 2211.68 2214.57 2214.12 2214.64 2213.76 2210.94 2211.38 2209.86 2197.91 2187.05 2172.57 2157.31 2130.40 2099.16 2069.02 2045.99 2027.29 2010.84 1990.85 1977.10 1972.12 1977.26 1997.17 2031.51 2044.63 2023.89 2015.89 2055.10 2103.54 2138.13 2169.67 2203.17 2241.80 2281.93 2317.97 2350.93 2381.44 2404.23 2416.27 2420.91 2428.52 2437.46 2449.75 2464.12 2480.94 2504.71 2540.79 2566.05 2588.79 2611.84 2633.14 2657.34 2689.79 2723.31 2756.15 2791.96 2812.11 2812.46 2821.80 2842.96 2847.63 2824.11 2807.66 2802.77 2805.54 2801.61 2794.53 2797.92 2793.47 2796.42 2815.70 2842.65 2873.86 2931.02 2981.55 3012.05 3021.09 3024.54 3021.29 3014.46 2996.31 2980.17 2963.29 2953.91 2946.28 2938.19 2954.36 2994.40 3007.98 2980.96 2972.43 2983.41 2992.43 2997.81 3003.15 3011.61 3028.95 3052.63 3078.16 3111.27 3152.45 3194.40 3240.86 3293.98 3347.90 3403.42 3407.62 3388.78 3369.17 3354.22 3341.62 3333.11 3326.85 3327.62 3347.40 3359.15 3343.08 3318.08 3291.05 3272.51 3261.94 3252.88 3243.65 3233.71 3223.28 3216.87 3209.01 3196.18 3191.31 3190.08 3190.77 3192.62 3195.17 3198.65 3202.09 3204.05 3204.11 3202.44 3199.76 3197.25 3205.29 3221.30 3197.99 3173.97 3148.05 3132.98 3133.88 3132.48 3130.81 3130.68 3130.72 3130.46 3130.69 3131.69 3132.26 3131.29 3129.52 3128.86 3129.49 3131.02 3133.00 3137.48 3146.90 3157.50 3165.60 3172.21 3177.24 3179.44 3181.84 3204.58 3254.09 3306.35 3347.05 3327.98 3300.08 3289.03 3286.99 3285.86 3284.80 3284.73 3286.68 3290.19 3294.42 3296.70 3321.94 3345.89 3370.71 3406.39 3411.64 3408.12 3415.28 3421.90 3429.28 3436.14 3402.67 3374.79 3364.74 3336.44 3310.26 3301.18 3303.09 3312.17 3326.44 3345.98 3368.05 3391.84 3413.03 3430.02 3449.28 3479.30 3503.19 3524.79 3549.15 3563.36 3555.98 3521.63 3489.59 3470.71 3459.51 3457.14 3470.44 3507.59 3534.54 3536.55 3516.03 3494.65 3478.14 3456.23 3428.65 3397.89 3363.70 3336.25 3310.89 3284.38 3259.25 3247.61 3245.59 3238.36 3225.45 3211.92 3200.22 3191.32 3184.26 3178.43 3174.14 3172.16 3179.18 3211.19 3250.33 3245.65 3223.30 3225.74 3214.65 3213.70 3182.01 3149.86 3116.00 3071.14 3035.48 3009.56 2994.57 2982.14 2981.93 2985.29 2984.31 2980.51 2987.59 2999.60 3012.24 2999.17 2987.22 2991.95 3006.05 3005.23 3002.64 3015.76 3025.49 3010.00 2980.71 2949.56 2913.62 2871.39 2843.46 2832.47 2822.20 2793.26 2762.91 2737.92 2722.95 2712.95 2695.12 2669.24 2643.98 2621.25 2596.89 2571.07 2544.76 2528.53 2523.09 2513.52 2508.40 2504.26 2496.34 2485.07 2472.84 2461.53 2449.55 2435.62 2415.76
2233.98 2218.33 2209.40 2200.60 2210.30 2211.79 2207.66 2226.07 2240.82 2239.59 2228.40 2234.81 2232.53 2229.80 2228.52 2226.09 2220.30 2218.21 2215.86 2211.58 2203.08 2189.50 2172.86 2145.67 2115.45 2091.70 2070.46 2051.19 2034.38 2013.90 1996.28 1986.15 1994.58 2023.73 2050.67 2065.75 2052.61 2023.86 2033.48 2075.42 2110.22 2139.88 2175.88 2212.36 2251.72 2292.17 2326.27 2360.26 2399.27 2425.10 2429.45 2430.99 2437.29 2444.51 2453.80 2468.83 2492.75 2527.08 2557.63 2578.49 2593.29 2610.74 2633.83 2667.10 2697.29 2728.87 2760.61 2775.79 2783.15 2795.82 2824.66 2818.99 2793.59 2778.57 2775.15 2779.82 2782.92 2779.17 2781.33 2781.36 2785.20 2806.24 2834.37 2867.01 2909.86 2953.16 3000.12 3010.16 3007.57 2997.75 2986.91 2983.29 2969.67 2948.88 2937.70 2928.67 2925.27 2945.44 2981.22 2996.16 2971.34 2970.25 2981.58 2988.57 2993.18 2998.55 3007.58 3025.28 3049.64 3073.37 3100.24 3144.51 3187.67 3238.92 3295.01 3346.78 3396.61 3397.73 3387.45 3375.47 3363.08 3353.65 3348.63 3348.91 3363.26 3378.42 3351.95 3327.16 3309.30 3288.00 3269.68 3256.81 3244.85 3233.74 3222.67 3211.12 3200.92 3192.77 3186.71 3183.78 3182.86 3183.10 3184.30 3185.99 3188.50 3191.18 3192.71 3192.33 3189.74 3185.07 3179.08 3173.64 3170.16 3155.88 3137.63 3124.08 3121.89 3123.22 3123.60 3124.03 3124.71 3124.96 3124.95 3125.23 3126.26 3126.67 3125.42 3123.58 3122.86 3123.49 3126.29 3130.02 3134.98 3141.23 3148.21 3154.94 3160.57 3164.62 3167.45 3177.04 3213.06 3262.07 3304.88 3315.70 3290.05 3270.17 3268.46 3269.54 3270.38 3271.13 3273.03 3276.52 3280.78 3285.63 3287.72 3305.21 3327.20 3357.06 3395.53 3395.05 3397.22 3407.38 3413.56 3417.80 3406.28 3372.74 3336.34 3312.65 3290.72 3280.85 3277.01 3280.49 3290.33 3307.04 3330.07 3358.36 3377.12 3383.13 3388.30 3403.39 3423.36 3446.07 3475.44 3505.09 3528.93 3521.03 3488.96 3455.25 3434.17 3420.85 3424.87 3447.45 3489.48 3521.02 3530.99 3529.03 3512.25 3493.35 3464.46 3426.35 3386.92 3353.59 3331.74 3310.98 3288.00 3264.85 3249.36 3242.67 3232.99 3217.81 3204.13 3194.51 3186.19 3177.83 3170.05 3164.38 3161.01 3162.09 3183.70 3222.31 3221.21 3189.42 3199.44 3206.92 3214.21 3193.71 3152.41 3118.64 3068.77 3026.64 3000.66 2984.71 2973.71 2973.51 2981.06 2981.80 2975.50 2978.68 2984.33 2997.76 2984.44 2958.44 2951.44 2951.94 2958.78 2972.24 2985.53 2987.87 2988.64 2977.96 2955.64 2926.25 2882.43 2843.88 2820.14 2801.14 2773.42 2747.54 2723.12 2703.38 2690.80 2675.36 2650.18 2625.21 2598.23 2572.89 2551.89 2527.36 2505.29 2503.77 2495.69 2490.61 2487.21 2478.99 2467.64 2451.00 2439.34 2429.18 2416.29 2396.66
2247.54 2238.47 2223.17 2217.25 2235.85 2231.11 2230.84 2251.44 2256.34 2243.12 2244.64 2253.05 2248.73 2247.74 2246.54 2242.07 2235.86 2234.99 2235.20 2232.56 2222.92 2208.08 2185.13 2156.97 2133.60 2116.74 2094.39 2075.80 2057.71 2032.64 2011.65 2003.13 2012.59 2038.18 2060.41 2078.12 2068.10 2037.51 2026.07 2052.31 2084.59 2118.46 2151.66 2182.32 2212.83 2253.29 2298.78 2336.11 2376.05 2408.49 2427.55 2431.73 2436.84 2444.42 2450.38 2462.40 2488.34 2521.27 2544.81 2561.01 2575.15 2588.12 2605.60 2639.56 2673.38 2703.91 2727.23 2745.62 2761.90 2787.98 2817.28 2801.65 2780.45 2764.44 2758.90 2765.57 2770.36 2762.41 2760.67 2767.89 2775.98 2797.85 2827.73 2866.28 2911.66 2958.72 3005.00 3007.40 2993.75 2979.71 2965.00 2958.77 2947.70 2930.58 2924.38 2921.47 2920.01 2936.24 2968.78 2982.58 2962.90 2968.68 2978.56 2984.76 2989.04 2994.37 3004.07 3022.52 3046.40 3068.52 3095.16 3141.03 3184.74 3237.30 3286.71 3333.56 3387.37 3393.87 3387.90 3378.97 3370.16 3365.66 3368.06 3378.92 3403.03 3385.25 3339.58 3313.16 3299.61 3283.98 3267.33 3252.49 3237.36 3223.91 3212.31 3201.57 3193.09 3186.03 3180.85 3177.80 3176.28 3175.83 3176.24 3176.91 3178.06 3179.65 3180.80 3180.12 3176.93 3170.99 3162.95 3153.47 3142.21 3129.97 3119.61 3114.09 3113.29 3114.60 3116.00 3117.51 3118.27 3118.13 3117.97 3118.13 3118.88 3118.98 3117.77 3116.71 3116.46 3116.98 3119.86 3124.55 3130.56 3136.43 3141.28 3145.44 3148.62 3151.47 3156.97 3177.25 3220.81 3268.37 3300.34 3272.33 3252.17 3248.25 3248.60 3250.16 3252.82 3256.38 3260.88 3266.36 3272.17 3277.87 3283.12 3290.95 3306.78 3337.00 3376.56 3386.31 3390.32 3398.32 3405.38 3411.95 3382.59 3336.53 3303.93 3280.95 3264.98 3260.52 3256.99 3261.10 3274.64 3294.41 3314.30 3335.97 3334.57 3331.18 3336.33 3349.89 3367.98 3392.72 3429.61 3470.95 3497.87 3489.16 3456.79 3423.80 3395.96 3386.37 3395.31 3421.23 3462.71 3485.70 3504.69 3514.23 3517.85 3518.05 3491.63 3440.19 3391.68 3357.44 3331.81 3310.31 3288.72 3267.70 3252.29 3243.05 3231.58 3213.94 3199.88 3191.53 3183.55 3173.66 3163.02 3153.40 3145.88 3139.08 3148.17 3172.98 3163.46 3143.18 3154.48 3182.94 3200.36 3198.31 3162.93 3119.36 3071.87 3023.96 2995.21 2976.36 2965.48 2963.97 2973.65 2973.93 2969.91 2971.06 2969.09 2979.59 2971.60 2942.96 2923.16 2915.89 2917.84 2926.62 2937.81 2939.23 2935.89 2935.96 2922.81 2906.78 2872.92 2831.85 2797.20 2774.68 2753.91 2733.09 2709.80 2687.93 2671.00 2653.88 2629.43 2608.09 2579.35 2546.60 2525.11 2508.74 2483.70 2471.90 2466.11 2462.43 2458.01 2451.86 2440.51 2423.30 2410.97 2398.94 2388.31 2370.12
2267.61 2258.59 2237.43 2232.68 2254.72 2250.22 2254.30 2272.64 2274.36 2265.65 2267.94 2272.18 2267.85 2268.35 2267.96 2267.08 2269.37 2265.47 2264.35 2253.05 2243.54 2225.99 2200.70 2177.87 2161.40 2141.17 2115.84 2097.38 2076.59 2052.66 2033.75 2022.22 2032.92 2050.83 2068.93 2086.76 2079.31 2051.47 2029.30 2046.10 2073.33 2106.61 2143.59 2177.84 2199.08 2227.38 2271.96 2312.45 2344.55 2377.69 2407.81 2427.90 2436.75 2445.49 2450.79 2457.90 2484.63 2511.31 2527.75 2536.28 2548.86 2564.13 2587.82 2620.03 2649.42 2677.02 2700.71 2723.60 2746.15 2781.34 2812.94 2803.45 2775.44 2753.52 2746.28 2745.80 2745.95 2743.63 2746.47 2755.40 2763.91 2787.73 2825.24 2872.13 2916.52 2958.75 2989.79 3000.02 2993.22 2973.13 2947.77 2930.81 2924.56 2917.89 2914.38 2915.05 2918.06 2929.60 2944.96 2958.75 2956.07 2965.89 2975.22 2981.32 2985.98 2992.13 3002.40 3020.73 3042.72 3065.23 3093.64 3135.15 3180.47 3229.75 3282.47 3337.39 3393.76 3403.07 3398.77 3391.59 3385.02 3385.02 3395.27 3420.26 3441.79 3406.22 3347.83 3307.33 3292.08 3278.49 3263.91 3248.43 3231.26 3215.03 3202.07 3192.72 3186.56 3180.50 3175.59 3172.25 3169.99 3168.89 3168.96 3169.40 3169.65 3169.72 3169.53 3167.88 3163.90 3157.23 3148.31 3137.97 3127.13 3117.11 3109.13 3105.27 3105.57 3107.14 3109.03 3110.43 3110.09 3109.23 3108.75 3108.42 3108.52 3109.03 3109.43 3110.01 3110.53 3110.79 3112.87 3117.85 3124.63 3130.54 3133.92 3135.03 3135.54 3138.48 3148.19 3176.29 3220.38 3265.38 3279.23 3240.05 3228.79 3231.23 3234.60 3237.73 3241.87 3247.25 3253.11 3259.47 3265.64 3271.60 3277.57 3285.36 3296.60 3317.55 3355.52 3372.67 3378.22 3388.39 3398.13 3405.51 3377.33 3321.79 3286.24 3264.81 3250.59 3243.86 3239.02 3245.62 3258.92 3269.51 3270.23 3271.20 3279.43 3289.07 3301.15 3315.22 3336.56 3360.62 3395.57 3442.82 3454.30 3449.48 3423.73 3390.84 3360.91 3353.46 3364.79 3388.97 3423.46 3442.64 3466.07 3470.49 3479.82 3516.46 3519.56 3473.14 3421.25 3377.80 3339.18 3311.98 3289.04 3269.61 3254.64 3243.67 3230.50 3211.63 3197.12 3188.05 3179.77 3169.12 3156.06 3142.40 3129.56 3116.69 3106.08 3101.60 3093.04 3091.42 3110.37 3148.95 3169.56 3172.62 3150.44 3109.48 3070.76 3019.10 2985.43 2967.08 2958.29 2955.34 2964.49 2965.90 2959.24 2960.06 2958.70 2960.73 2954.89 2934.36 2911.96 2895.63 2888.97 2885.17 2888.42 2892.61 2891.44 2886.58 2879.65 2869.26 2843.44 2814.42 2786.82 2764.44 2745.72 2725.96 2701.64 2677.82 2658.82 2639.02 2606.58 2582.32 2554.80 2527.94 2497.80 2481.22 2464.66 2442.11 2436.51 2432.76 2423.02 2416.93 2409.03 2394.79 2381.17 2368.41 2357.49 2340.78
2279.90 2262.85 2243.84 2248.62 2261.89 2261.44 2274.42 2291.48 2298.01 2292.73 2286.63 2288.24 2288.66 2291.56 2292.39 2294.83 2298.20 2294.78 2290.12 2273.76 2260.05 2239.23 2217.50 2200.80 2183.56 2159.35 2135.48 2117.09 2096.90 2074.96 2060.38 2045.07 2048.58 2061.54 2072.99 2093.23 2087.91 2060.06 2032.71 2040.28 2063.09 2095.55 2131.94 2167.90 2194.68 2220.15 2258.73 2298.96 2331.49 2361.44 2390.61 2415.71 2431.78 2443.08 2449.28 2454.60 2472.22 2491.45 2507.73 2517.36 2526.42 2540.62 2567.06 2596.31 2623.33 2654.30 2682.95 2703.32 2724.49 2757.98 2789.46 2794.88 2767.52 2742.32 2733.37 2730.23 2724.26 2728.29 2736.40 2747.23 2754.52 2785.71 2834.46 2867.24 2890.29 2925.00 2943.05 2975.30 2992.66 2968.10 2936.85 2920.02 2914.60 2911.20 2909.73 2913.36 2915.65 2919.47 2928.04 2939.62 2950.77 2962.35 2971.50 2978.21 2983.68 2991.16 3002.63 3019.63 3040.56 3064.97 3094.83 3137.91 3189.49 3236.54 3288.66 3350.33 3413.16 3425.09 3427.21 3424.36 3419.58 3424.75 3444.43 3474.78 3462.99 3422.35 3366.23 3311.16 3287.52 3272.25 3258.52 3243.61 3226.22 3207.96 3192.48 3184.35 3180.55 3175.49 3170.49 3166.94 3164.27 3162.62 3162.48 3163.35 3163.46 3161.86 3159.29 3155.85 3150.94 3144.12 3135.39 3125.51 3115.78 3107.22 3100.83 3097.96 3098.03 3099.06 3100.51 3101.14 3099.56 3096.99 3095.39 3095.05 3094.70 3096.30 3100.21 3103.38 3105.20 3105.20 3106.11 3110.14 3116.13 3121.70 3124.46 3123.53 3122.35 3125.72 3139.04 3173.16 3216.60 3254.92 3245.65 3211.44 3210.37 3218.69 3225.45 3230.67 3235.98 3241.76 3247.55 3253.67 3260.08 3266.92 3273.84 3281.10 3289.92 3302.62 3332.79 3355.81 3369.91 3379.63 3390.01 3403.95 3373.22 3321.51 3279.16 3254.91 3239.19 3230.80 3224.21 3228.54 3230.89 3230.80 3225.38 3227.05 3244.58 3260.34 3274.95 3294.45 3315.96 3337.15 3368.70 3410.75 3404.08 3398.61 3382.93 3355.55 3329.90 3320.26 3330.66 3352.47 3381.83 3403.68 3424.25 3425.26 3449.55 3476.09 3495.97 3501.88 3463.34 3410.27 3362.62 3328.65 3299.35 3275.76 3256.16 3241.80 3226.71 3207.93 3191.38 3179.50 3170.97 3160.18 3144.24 3128.10 3113.33 3100.49 3083.39 3061.33 3052.98 3057.81 3073.37 3113.52 3135.47 3142.16 3116.53 3076.68 3049.28 3004.90 2973.83 2958.99 2951.32 2946.85 2952.37 2955.02 2944.52 2943.76 2949.36 2950.55 2942.90 2928.79 2909.94 2888.54 2866.70 2858.91 2856.39 2860.80 2859.15 2850.92 2843.32 2836.13 2819.73 2794.16 2772.19 2751.61 2732.78 2710.77 2685.04 2660.73 2637.55 2609.22 2577.46 2556.66 2531.54 2503.99 2476.95 2452.47 2439.84 2418.73 2407.68 2402.66 2390.00 2381.75 2375.71 2366.56 2356.38 2344.65 2331.80 2321.00
2277.76 2258.05 2254.08 2278.91 2282.11 2278.15 2291.94 2311.32 2321.47 2314.02 2302.62 2305.36 2311.34 2316.96 2318.65 2319.49 2321.97 2320.38 2315.90 2297.74 2276.85 2250.89 2232.51 2215.47 2194.30 2171.57 2154.75 2138.10 2118.18 2097.75 2083.16 2067.79 2058.09 2069.16 2079.72 2097.88 2097.21 2067.94 2036.23 2039.13 2058.81 2088.21 2121.18 2156.63 2193.34 2216.78 2243.46 2283.93 2321.92 2353.71 2383.55 2408.87 2431.44 2446.62 2450.54 2453.44 2459.85 2472.31 2484.17 2496.08 2509.36 2524.53 2546.18 2574.94 2611.38 2638.54 2662.67 2685.65 2702.56 2728.71 2759.60 2775.82 2755.16 2731.49 2722.35 2716.52 2709.30 2712.92 2722.80 2736.38 2750.50 2784.35 2814.40 2831.16 2850.30 2882.28 2894.92 2930.61 2968.73 2948.64 2923.31 2911.36 2904.86 2903.92 2903.64 2900.43 2902.84 2913.65 2925.33 2935.89 2946.98 2958.06 2967.73 2975.36 2982.63 2992.19 3003.73 3018.03 3038.88 3068.72 3103.49 3151.49 3203.24 3252.32 3298.37 3355.21 3422.91 3465.53 3485.27 3493.42 3490.34 3493.52 3504.74 3495.66 3455.91 3414.23 3367.63 3315.47 3284.56 3265.49 3251.52 3237.34 3220.85 3202.06 3185.46 3178.19 3175.31 3170.93 3165.69 3161.74 3158.86 3156.91 3156.29 3156.69 3156.32 3154.11 3150.18 3145.24 3139.62 3132.95 3124.93 3116.17 3107.70 3100.22 3094.55 3091.30 3089.99 3089.78 3089.86 3088.73 3085.32 3080.40 3077.02 3077.86 3079.10 3082.70 3090.38 3096.53 3099.81 3100.22 3100.20 3102.19 3106.14 3111.61 3114.69 3113.28 3112.17 3116.46 3132.44 3168.05 3210.37 3230.46 3208.52 3188.91 3196.27 3209.09 3217.99 3224.34 3230.35 3236.47 3242.72 3249.54 3257.03 3264.85 3272.42 3279.53 3287.02 3292.78 3302.20 3329.63 3349.53 3361.83 3379.44 3408.31 3381.15 3327.68 3279.76 3248.83 3231.20 3222.21 3212.91 3209.88 3209.65 3202.45 3197.61 3204.73 3222.16 3238.25 3257.65 3280.87 3302.44 3309.26 3332.69 3360.94 3348.46 3342.62 3336.80 3317.79 3298.23 3287.44 3299.21 3322.32 3348.41 3364.04 3379.63 3385.48 3411.61 3426.85 3463.26 3497.48 3486.45 3443.96 3402.93 3367.73 3331.85 3301.50 3266.59 3239.90 3221.37 3201.65 3182.51 3166.36 3155.31 3145.57 3128.04 3110.82 3096.78 3085.38 3072.65 3054.25 3038.88 3038.12 3045.63 3076.26 3107.97 3119.80 3087.84 3045.65 3020.64 2989.73 2964.84 2952.40 2944.10 2939.20 2940.14 2941.20 2935.21 2935.61 2940.02 2944.16 2934.19 2914.96 2891.07 2866.54 2843.66 2831.98 2830.33 2834.43 2831.37 2822.35 2814.19 2807.33 2793.92 2770.25 2746.91 2727.51 2708.38 2686.68 2663.09 2632.36 2598.78 2568.28 2549.63 2530.36 2504.66 2475.86 2451.49 2426.41 2410.34 2393.61 2377.74 2376.35 2361.45 2352.70 2348.35 2340.23 2329.93 2319.35 2310.76 2302.12
2266.54 2260.08 2272.51 2297.49 2297.82 2297.75 2310.42 2325.86 2333.40 2330.60 2321.74 2324.94 2335.26 2343.96 2346.34 2345.12 2348.99 2348.78 2344.73 2324.74 2295.01 2269.51 2250.55 2230.36 2206.94 2185.38 2168.17 2155.25 2139.78 2117.58 2100.22 2090.09 2071.18 2073.42 2083.00 2101.81 2105.77 2074.36 2039.23 2035.87 2054.46 2085.69 2121.13 2157.91 2194.61 2218.52 2231.81 2279.89 2320.07 2350.74 2374.98 2396.57 2425.06 2447.47 2454.15 2457.65 2460.50 2464.80 2471.10 2484.08 2500.48 2518.12 2541.68 2568.31 2599.08 2619.06 2641.76 2667.80 2682.75 2700.38 2724.66 2741.91 2737.36 2722.81 2715.82 2706.11 2696.93 2700.25 2708.04 2717.50 2738.40 2763.63 2773.37 2790.13 2803.63 2823.19 2848.97 2881.18 2929.17 2927.29 2907.37 2897.10 2890.62 2887.41 2884.75 2889.45 2900.74 2912.50 2924.25 2934.34 2944.29 2954.66 2964.55 2973.72 2983.69 2994.85 3005.87 3017.51 3037.56 3069.30 3116.83 3169.25 3216.73 3267.73 3317.73 3373.10 3430.46 3494.54 3511.63 3506.77 3504.88 3501.08 3500.74 3493.58 3460.60 3414.06 3371.98 3330.99 3297.90 3265.66 3244.81 3230.88 3215.21 3197.19 3181.45 3173.88 3170.32 3166.12 3160.88 3156.47 3153.31 3151.08 3149.70 3148.99 3148.11 3146.00 3141.84 3136.48 3130.67 3124.19 3116.72 3108.58 3100.89 3094.14 3088.60 3084.54 3081.89 3080.15 3078.27 3075.03 3070.05 3064.45 3060.65 3063.08 3067.02 3072.14 3081.32 3089.18 3093.29 3094.65 3095.10 3095.86 3097.95 3102.93 3106.73 3106.42 3107.01 3112.08 3125.84 3160.41 3197.57 3196.27 3178.80 3175.02 3186.87 3200.34 3210.41 3217.68 3224.28 3231.45 3239.45 3247.84 3256.22 3264.51 3272.84 3281.20 3290.25 3298.76 3303.07 3311.59 3329.57 3349.91 3375.58 3403.60 3368.15 3320.68 3277.61 3244.65 3226.58 3215.73 3205.73 3194.66 3188.41 3180.66 3178.91 3187.83 3203.12 3222.12 3255.41 3275.70 3279.79 3262.21 3271.13 3289.45 3293.38 3278.06 3271.94 3265.69 3254.29 3256.13 3273.89 3296.67 3320.21 3323.24 3336.81 3342.50 3363.59 3385.00 3419.29 3443.55 3466.20 3464.65 3441.59 3412.23 3379.52 3342.37 3294.81 3252.14 3222.01 3195.39 3171.24 3151.71 3137.52 3127.64 3112.84 3094.88 3081.76 3070.53 3059.73 3047.13 3032.95 3026.38 3031.84 3050.91 3089.04 3111.98 3074.02 3027.48 3000.24 2977.83 2955.65 2943.70 2937.42 2931.95 2931.89 2930.99 2928.15 2930.34 2936.36 2935.84 2916.01 2890.28 2866.21 2841.65 2820.52 2811.12 2807.19 2807.19 2805.79 2799.97 2791.05 2778.30 2764.79 2743.43 2719.09 2700.08 2679.85 2660.80 2636.07 2599.89 2566.09 2538.34 2519.76 2497.51 2470.38 2445.72 2422.86 2398.72 2382.96 2371.25 2352.74 2350.39 2338.49 2325.72 2320.30 2311.86 2304.20 2295.88 2287.43 2275.39
2267.49 2267.52 2285.02 2302.90 2312.31 2317.52 2322.51 2343.41 2361.38 2360.74 2353.82 2352.61 2360.23 2372.21 2375.62 2374.89 2379.17 2376.26 2367.34 2346.58 2315.07 2291.76 2268.29 2243.89 2221.30 2202.85 2190.01 2174.81 2161.08 2139.84 2122.03 2106.49 2083.14 2076.43 2082.36 2097.46 2107.60 2079.49 2043.96 2033.30 2049.64 2085.59 2124.26 2162.66 2194.96 2219.53 2239.48 2273.46 2312.14 2349.69 2373.33 2392.07 2411.64 2430.16 2440.08 2447.51 2454.01 2460.37 2470.31 2483.48 2499.47 2518.74 2537.80 2560.51 2582.92 2600.08 2627.44 2649.14 2663.12 2679.67 2694.38 2706.57 2710.40 2704.81 2695.13 2687.00 2680.91 2684.46 2692.68 2700.00 2713.93 2729.02 2737.52 2758.53 2772.71 2790.45 2813.60 2838.70 2881.10 2893.31 2875.98 2872.62 2870.00 2867.51 2874.91 2887.81 2899.94 2912.83 2924.13 2933.46 2943.41 2953.28 2963.08 2974.12 2986.09 2997.57 3008.14 3019.68 3041.28 3079.49 3134.99 3186.88 3233.73 3276.63 3326.12 3385.24 3444.04 3489.10 3493.37 3482.19 3470.92 3461.75 3457.36 3459.40 3459.93 3439.68 3414.76 3389.20 3345.95 3287.47 3245.01 3226.77 3211.07 3194.49 3179.53 3170.18 3165.39 3160.90 3155.84 3151.42 3148.17 3145.72 3143.60 3141.83 3140.33 3137.92 3133.69 3128.48 3122.77 3116.33 3109.01 3101.02 3093.40 3087.03 3081.74 3077.59 3074.40 3071.74 3068.41 3064.29 3060.30 3056.95 3054.67 3056.74 3060.74 3065.63 3073.58 3080.98 3085.11 3087.40 3090.02 3091.76 3092.34 3095.42 3099.21 3100.61 3103.29 3108.52 3125.79 3165.08 3191.40 3170.55 3162.78 3171.02 3182.70 3193.51 3203.70 3211.46 3217.92 3225.68 3235.82 3245.81 3254.90 3264.03 3273.64 3283.51 3293.62 3302.90 3310.88 3319.47 3331.90 3347.67 3372.54 3384.99 3335.66 3298.84 3268.28 3243.10 3227.23 3213.82 3201.29 3187.99 3175.12 3166.25 3165.88 3174.45 3184.97 3202.95 3234.21 3243.50 3229.38 3202.67 3202.45 3206.72 3218.42 3214.18 3208.39 3202.43 3208.74 3225.79 3246.63 3268.93 3284.04 3283.29 3292.70 3302.16 3320.60 3347.36 3371.95 3399.57 3424.17 3425.83 3425.94 3426.61 3406.63 3358.85 3315.92 3280.38 3238.95 3199.72 3166.22 3141.12 3122.68 3108.35 3095.20 3076.37 3063.23 3053.68 3045.70 3036.64 3027.47 3019.93 3019.14 3030.93 3063.44 3091.79 3073.43 3029.75 2995.61 2972.52 2950.10 2935.70 2931.50 2927.69 2926.29 2926.70 2925.04 2925.04 2927.22 2922.15 2897.52 2869.66 2844.64 2821.23 2799.06 2784.60 2778.10 2773.69 2772.61 2772.84 2766.88 2748.23 2734.66 2720.37 2692.52 2665.01 2646.17 2630.91 2599.42 2566.98 2539.85 2513.17 2490.94 2466.71 2438.43 2414.39 2396.23 2376.61 2359.28 2351.62 2335.31 2324.16 2317.16 2303.88 2291.25 2284.44 2281.52 2272.40 2259.90 2246.78
2283.37 2280.53 2293.45 2309.36 2325.01 2332.79 2336.86 2370.27 2391.94 2394.73 2393.53 2389.03 2392.77 2403.29 2407.01 2408.97 2411.12 2403.99 2392.38 2370.03 2340.04 2314.20 2288.83 2269.45 2255.37 2236.58 2217.19 2198.80 2181.04 2163.89 2142.82 2124.62 2105.79 2094.77 2094.36 2091.57 2101.95 2084.68 2050.63 2034.65 2047.24 2080.59 2114.22 2151.73 2185.36 2212.83 2237.20 2257.21 2283.36 2324.59 2360.09 2380.28 2395.22 2406.60 2416.81 2426.93 2434.59 2443.00 2458.60 2472.88 2490.87 2504.84 2515.03 2532.17 2552.96 2579.22 2611.47 2629.85 2641.66 2651.51 2662.49 2675.18 2680.13 2677.62 2674.37 2672.49 2666.54 2665.61 2673.07 2678.65 2679.93 2691.73 2707.17 2728.85 2751.33 2771.37 2792.27 2806.26 2826.40 2845.97 2847.50 2853.14 2852.48 2856.55 2872.48 2886.40 2898.99 2910.71 2921.04 2932.19 2943.68 2954.17 2964.63 2976.44 2989.15 3001.03 3012.06 3024.37 3044.34 3091.74 3154.69 3205.21 3254.49 3300.48 3342.80 3392.25 3448.14 3479.63 3484.32 3476.97 3462.09 3448.38 3437.61 3430.69 3429.48 3435.04 3437.49 3414.16 3369.53 3315.15 3261.24 3228.97 3210.43 3194.57 3179.41 3167.35 3160.61 3155.70 3150.95 3146.86 3143.73 3141.25 3138.73 3136.15 3133.44 3129.92 3125.42 3120.22 3114.39 3107.55 3099.97 3092.05 3084.15 3077.92 3073.62 3070.51 3067.96 3065.16 3061.79 3058.09 3055.42 3054.03 3053.08 3054.65 3057.43 3060.62 3066.28 3072.21 3075.66 3078.49 3082.88 3086.20 3086.54 3087.59 3090.74 3093.27 3097.09 3103.53 3127.74 3163.37 3166.84 3155.73 3161.79 3172.54 3182.67 3190.52 3199.11 3206.25 3210.35 3216.28 3227.77 3240.61 3251.51 3261.91 3272.73 3283.89 3294.62 3303.78 3311.82 3320.57 3332.33 3348.20 3375.26 3372.55 3327.13 3294.87 3268.42 3245.87 3229.29 3216.53 3203.35 3187.50 3173.76 3162.71 3157.75 3161.17 3165.17 3175.73 3191.59 3201.01 3183.28 3152.49 3138.35 3133.24 3140.11 3151.39 3157.04 3165.21 3180.58 3198.72 3214.15 3233.00 3242.94 3244.55 3257.31 3267.34 3286.52 3306.35 3326.21 3354.69 3374.22 3376.72 3374.95 3382.87 3383.52 3371.04 3344.33 3310.54 3262.89 3216.71 3169.83 3134.74 3112.72 3090.65 3073.93 3057.88 3044.42 3035.96 3031.48 3025.74 3019.97 3012.76 3003.40 3005.12 3017.70 3045.47 3065.03 3059.37 3010.87 2977.17 2954.91 2935.23 2928.53 2928.44 2923.83 2922.85 2924.77 2922.71 2918.16 2908.07 2882.75 2853.38 2827.42 2804.52 2783.01 2764.55 2752.42 2743.44 2737.55 2736.60 2735.24 2717.16 2700.63 2693.25 2669.89 2635.93 2611.45 2593.79 2569.94 2542.88 2512.70 2484.90 2462.80 2436.94 2407.48 2385.84 2372.59 2358.22 2338.52 2327.32 2319.23 2302.57 2293.54 2284.03 2272.67 2261.87 2252.55 2240.25 2226.64 2215.61
2302.48 2295.54 2298.98 2320.51 2340.81 2349.74 2355.74 2388.07 2413.90 2425.33 2434.82 2439.15 2442.19 2438.26 2440.37 2445.96 2445.36 2435.83 2419.05 2395.33 2371.62 2352.23 2329.63 2309.76 2290.10 2264.59 2242.51 2223.05 2205.60 2186.22 2162.76 2143.43 2128.41 2118.85 2119.28 2105.57 2106.35 2090.25 2056.59 2037.78 2042.47 2072.32 2102.57 2131.68 2162.00 2192.35 2225.76 2251.40 2266.95 2294.24 2334.78 2358.36 2371.90 2381.82 2392.58 2403.52 2415.24 2426.70 2438.54 2451.99 2465.52 2476.02 2483.47 2495.57 2516.25 2550.68 2581.74 2602.20 2613.06 2618.17 2623.12 2633.19 2635.33 2636.08 2641.19 2648.53 2648.66 2646.62 2648.86 2647.84 2653.77 2672.23 2693.99 2717.09 2738.39 2753.80 2763.84 2770.51 2786.31 2814.04 2828.91 2833.95 2839.35 2850.42 2869.04 2883.65 2895.02 2906.93 2920.31 2934.32 2946.84 2957.79 2968.95 2980.84 2993.21 3006.29 3020.49 3036.91 3060.25 3107.46 3178.32 3228.19 3273.47 3319.04 3365.12 3415.26 3460.87 3475.88 3478.08 3473.90 3463.07 3448.37 3432.92 3420.23 3411.13 3404.77 3400.69 3394.87 3378.44 3335.17 3288.71 3244.76 3214.93 3197.24 3181.21 3166.29 3156.58 3150.69 3146.49 3142.75 3139.53 3136.66 3133.65 3130.14 3126.03 3121.47 3116.16 3110.45 3104.76 3098.16 3090.38 3081.84 3073.86 3068.08 3065.11 3063.47 3061.82 3059.19 3055.91 3052.62 3050.80 3050.64 3051.28 3052.23 3053.38 3054.72 3058.26 3063.09 3065.93 3068.13 3073.31 3077.68 3078.45 3078.59 3081.39 3084.35 3088.11 3095.56 3116.08 3134.61 3139.59 3152.07 3165.48 3174.24 3181.84 3189.12 3196.41 3202.11 3202.71 3205.24 3216.06 3230.70 3243.76 3255.86 3268.52 3281.86 3294.81 3305.94 3316.27 3327.58 3342.01 3363.29 3397.02 3393.68 3341.10 3300.63 3273.15 3250.46 3230.81 3213.29 3198.85 3185.79 3172.56 3161.15 3152.95 3148.39 3147.89 3154.16 3163.25 3164.90 3142.32 3115.62 3100.52 3094.30 3099.46 3111.56 3123.97 3139.96 3152.48 3162.51 3175.25 3193.59 3204.15 3208.36 3222.40 3232.10 3246.24 3262.27 3283.17 3306.15 3328.59 3333.82 3324.86 3329.16 3339.60 3357.39 3349.99 3313.65 3265.54 3222.32 3177.42 3130.29 3099.14 3074.92 3054.50 3039.13 3030.26 3026.75 3016.32 3012.07 3009.69 3003.73 2985.55 2978.68 2984.43 3003.53 3026.06 3054.80 3037.62 2994.44 2965.92 2941.42 2927.68 2927.97 2922.39 2916.74 2915.14 2912.97 2904.85 2895.91 2872.22 2842.21 2815.60 2790.87 2770.36 2752.51 2736.86 2723.60 2714.85 2710.78 2705.09 2687.97 2665.00 2657.65 2642.14 2608.54 2576.78 2552.30 2534.10 2507.45 2478.44 2452.66 2427.23 2402.77 2379.52 2364.25 2352.90 2338.85 2321.38 2305.00 2298.47 2284.59 2270.95 2259.57 2248.65 2233.70 2220.87 2206.46 2193.80 2188.93
2305.39 2303.87 2307.16 2335.14 2352.68 2359.50 2374.95 2403.45 2433.25 2458.15 2483.76 2492.86 2484.03 2473.69 2477.43 2485.12 2482.70 2473.20 2451.16 2432.25 2415.25 2399.85 2376.32 2342.38 2315.37 2288.43 2264.01 2244.88 2228.86 2205.73 2181.76 2160.96 2148.55 2136.54 2131.90 2121.24 2113.44 2099.68 2068.49 2045.70 2040.63 2059.17 2085.80 2112.73 2141.37 2173.67 2209.64 2245.87 2272.85 2293.68 2326.70 2350.77 2358.28 2365.13 2375.46 2381.54 2390.34 2403.66 2415.68 2425.32 2435.65 2446.24 2456.48 2469.14 2488.94 2521.70 2551.74 2568.27 2579.13 2582.71 2584.58 2588.47 2591.56 2598.27 2608.71 2617.22 2624.09 2628.44 2628.29 2631.70 2651.92 2676.07 2695.55 2709.06 2718.94 2729.44 2739.42 2750.52 2772.71 2797.73 2813.14 2821.67 2832.10 2843.98 2861.92 2875.99 2888.57 2904.36 2922.79 2940.41 2954.20 2965.02 2975.76 2986.87 2998.80 3013.61 3032.94 3058.60 3090.70 3138.45 3197.47 3252.78 3305.13 3349.61 3390.48 3436.69 3469.89 3473.75 3473.34 3469.78 3462.43 3451.15 3435.47 3418.89 3405.66 3395.09 3385.62 3377.02 3366.78 3345.56 3306.43 3264.20 3226.17 3202.71 3185.44 3167.84 3154.15 3145.87 3142.11 3138.84 3135.12 3131.40 3127.51 3123.05 3117.61 3111.24 3104.58 3098.54 3093.21 3087.62 3080.63 3072.20 3064.47 3059.45 3057.15 3056.31 3055.15 3052.51 3048.94 3045.71 3044.13 3044.42 3045.89 3046.99 3047.35 3047.30 3049.04 3053.28 3055.92 3056.82 3061.63 3067.23 3069.01 3068.82 3071.43 3074.67 3078.19 3084.97 3097.09 3111.30 3128.33 3147.98 3164.70 3172.72 3177.89 3185.51 3193.60 3199.18 3199.19 3200.07 3207.84 3218.37 3229.75 3243.76 3260.79 3281.09 3299.44 3314.20 3327.66 3344.17 3365.54 3397.68 3432.25 3418.54 3360.42 3311.88 3281.32 3257.87 3236.13 3216.25 3198.64 3182.84 3168.83 3156.25 3147.07 3140.53 3136.08 3141.95 3152.60 3153.00 3125.93 3093.54 3077.98 3075.77 3081.51 3092.42 3103.20 3115.73 3124.23 3125.60 3134.02 3157.49 3165.80 3172.30 3184.36 3197.24 3208.81 3222.90 3248.27 3273.12 3299.70 3296.09 3286.36 3287.11 3297.17 3319.04 3332.16 3301.08 3248.98 3203.25 3163.70 3121.98 3086.31 3063.52 3043.91 3030.43 3022.68 3012.65 2996.10 2983.98 2981.29 2978.35 2967.10 2956.54 2956.12 2974.46 2992.39 3018.34 3043.38 3008.70 2966.70 2942.00 2928.69 2927.32 2917.81 2906.77 2898.33 2895.26 2888.42 2884.08 2864.04 2835.31 2811.82 2786.77 2762.58 2746.20 2730.42 2716.44 2703.10 2691.31 2678.53 2659.56 2634.71 2619.26 2607.12 2580.14 2546.85 2513.94 2491.85 2465.70 2439.53 2415.17 2394.06 2374.45 2355.10 2343.20 2333.79 2322.21 2306.74 2288.29 2275.81 2265.44 2254.62 2237.13 2223.90 2210.44 2196.24 2180.38 2163.95 2158.85
2303.28 2306.36 2315.22 2339.33 2358.32 2366.95 2389.77 2421.29 2453.25 2487.41 2521.74 2536.39 2526.84 2515.33 2521.28 2526.61 2523.04 2516.79 2494.50 2472.87 2455.76 2434.06 2406.71 2374.60 2342.53 2311.99 2284.27 2268.05 2254.05 2232.72 2205.93 2180.33 2164.11 2151.41 2150.06 2139.89 2125.48 2104.71 2080.00 2058.07 2043.41 2053.44 2074.82 2098.06 2124.27 2162.95 2202.30 2236.78 2271.26 2297.20 2318.79 2341.42 2352.06 2355.60 2365.22 2371.44 2376.37 2383.93 2393.76 2402.29 2412.49 2420.31 2428.25 2444.51 2463.89 2486.79 2513.44 2530.93 2543.66 2545.45 2543.93 2546.62 2557.24 2567.14 2576.22 2582.50 2591.40 2597.65 2609.26 2632.02 2651.58 2662.72 2674.30 2686.63 2702.16 2718.94 2731.86 2743.55 2762.10 2785.26 2805.02 2815.22 2823.72 2838.59 2856.29 2872.67 2888.43 2906.69 2928.82 2948.82 2963.33 2974.38 2985.49 2996.13 3009.36 3026.99 3050.48 3089.23 3131.10 3177.49 3225.23 3274.88 3335.50 3385.18 3428.84 3463.73 3475.04 3472.57 3470.09 3466.55 3461.04 3452.40 3440.09 3423.12 3406.59 3394.05 3382.10 3369.12 3354.55 3329.20 3293.91 3265.24 3236.07 3209.64 3189.47 3169.76 3152.26 3141.47 3137.57 3134.76 3130.41 3125.63 3120.76 3115.15 3108.24 3099.61 3091.93 3086.35 3081.36 3076.19 3070.37 3063.38 3056.29 3051.79 3049.76 3048.90 3047.66 3044.93 3041.30 3038.30 3037.31 3037.75 3039.17 3040.37 3040.26 3038.92 3038.84 3042.21 3045.06 3045.32 3049.10 3055.83 3059.64 3059.82 3062.27 3065.97 3069.78 3077.77 3092.09 3107.60 3123.22 3140.82 3159.36 3168.40 3171.13 3178.36 3188.17 3195.44 3197.84 3198.93 3203.65 3210.76 3223.54 3243.98 3271.07 3305.74 3324.87 3337.05 3353.41 3373.38 3398.35 3433.53 3460.53 3430.61 3379.56 3330.02 3294.09 3267.77 3244.39 3222.69 3203.59 3184.88 3168.29 3154.79 3142.20 3132.70 3127.37 3127.00 3135.75 3147.85 3125.59 3090.37 3065.14 3062.13 3067.84 3078.30 3086.30 3091.63 3096.85 3097.61 3100.07 3116.54 3131.87 3140.28 3153.02 3162.59 3171.30 3184.79 3211.03 3244.55 3269.50 3256.60 3252.27 3253.08 3254.77 3270.82 3296.33 3289.52 3247.01 3198.62 3151.87 3100.30 3065.68 3050.77 3037.79 3027.84 3013.73 2986.01 2955.15 2937.33 2928.50 2934.02 2941.39 2934.75 2926.86 2941.36 2959.19 2982.67 3021.02 3017.85 2976.23 2946.72 2929.81 2919.78 2902.92 2891.71 2881.85 2873.82 2868.94 2863.40 2853.04 2833.92 2812.94 2788.27 2767.52 2751.94 2736.53 2720.10 2701.86 2682.49 2660.02 2634.78 2610.45 2591.25 2573.31 2548.44 2519.75 2488.92 2463.54 2439.15 2413.24 2388.28 2371.06 2354.67 2339.60 2325.88 2314.81 2301.45 2285.56 2268.75 2257.11 2246.70 2238.41 2221.44 2202.90 2188.46 2172.35 2155.91 2137.87 2118.67
2310.73 2312.57 2322.71 2345.25 2364.49 2382.74 2410.54 2438.86 2472.69 2509.92 2548.20 2574.86 2567.89 2556.30 2559.28 2563.44 2562.87 2562.53 2542.65 2513.21 2488.08 2460.65 2428.02 2401.01 2376.15 2343.28 2311.60 2297.43 2290.53 2272.14 2242.01 2206.59 2180.42 2164.56 2157.49 2152.03 2133.00 2111.29 2090.31 2068.20 2049.54 2052.20 2067.93 2084.56 2104.85 2142.47 2188.52 2225.99 2253.08 2280.08 2306.26 2328.41 2340.02 2346.90 2356.01 2362.78 2372.36 2383.13 2389.68 2394.92 2401.65 2405.69 2412.61 2424.89 2440.82 2458.74 2475.73 2491.31 2504.03 2510.26 2507.83 2511.46 2522.65 2530.84 2540.75 2550.84 2561.31 2578.44 2604.93 2622.71 2630.13 2641.87 2660.01 2679.16 2699.59 2718.95 2734.94 2746.74 2762.71 2782.82 2797.97 2807.05 2818.45 2836.37 2855.60 2876.36 2896.69 2917.44 2941.19 2962.30 2976.52 2988.23 3001.51 3014.61 3031.12 3050.25 3084.90 3133.35 3168.49 3214.54 3261.13 3305.74 3358.70 3417.59 3461.72 3484.14 3478.36 3472.15 3467.88 3463.73 3458.70 3452.04 3444.30 3433.97 3417.30 3403.07 3388.31 3369.14 3348.36 3324.37 3295.65 3267.40 3240.27 3214.51 3191.83 3170.65 3150.20 3137.30 3133.43 3131.06 3126.37 3120.40 3114.11 3107.06 3098.75 3089.49 3081.29 3075.80 3071.29 3065.98 3060.61 3054.14 3047.82 3043.20 3041.00 3040.01 3038.92 3036.60 3033.50 3031.19 3031.00 3032.04 3033.30 3034.26 3033.87 3031.61 3029.62 3031.41 3034.36 3034.85 3037.40 3044.46 3050.31 3051.75 3054.18 3058.68 3065.06 3076.86 3091.75 3106.47 3120.29 3135.24 3152.52 3161.61 3161.72 3168.62 3179.84 3188.88 3192.65 3193.59 3196.19 3207.68 3236.30 3270.34 3307.62 3345.98 3366.59 3365.96 3378.50 3401.02 3429.29 3463.80 3484.32 3449.78 3397.56 3350.71 3311.90 3281.41 3257.35 3233.67 3211.43 3190.48 3171.63 3157.83 3142.69 3126.23 3116.62 3115.41 3115.64 3116.05 3100.34 3069.27 3050.66 3050.38 3056.48 3064.93 3069.20 3071.81 3075.00 3075.69 3075.51 3081.98 3100.88 3113.49 3123.51 3126.10 3132.67 3148.57 3172.17 3207.97 3232.77 3218.56 3217.10 3219.83 3220.65 3227.00 3244.69 3253.92 3237.29 3195.08 3143.99 3086.47 3045.84 3029.44 3025.73 3013.87 2995.61 2968.92 2926.76 2893.53 2879.44 2888.34 2909.23 2920.44 2912.57 2911.64 2927.31 2948.71 2980.71 3011.66 2994.96 2960.70 2929.75 2909.49 2895.01 2883.26 2868.25 2855.29 2848.86 2839.58 2839.24 2831.72 2814.43 2791.65 2772.04 2760.04 2738.62 2714.15 2696.99 2678.30 2649.95 2620.11 2592.09 2571.75 2553.87 2530.46 2500.23 2469.78 2439.30 2414.21 2391.54 2368.04 2349.44 2333.40 2323.17 2310.15 2291.64 2275.94 2261.31 2248.91 2240.63 2231.38 2220.36 2203.96 2184.40 2168.57 2154.18 2137.38 2119.83 2096.89
2318.16 2319.69 2330.04 2352.65 2380.33 2407.46 2429.39 2451.48 2487.89 2537.82 2577.19 2607.48 2603.32 2594.91 2593.81 2601.01 2607.18 2605.29 2586.70 2554.12 2513.47 2477.92 2446.57 2423.65 2405.74 2376.85 2346.04 2334.55 2331.39 2311.70 2280.91 2241.42 2201.70 2177.28 2165.14 2157.80 2141.71 2121.64 2097.60 2077.00 2060.12 2056.65 2068.84 2084.63 2105.11 2132.41 2160.52 2195.86 2223.81 2251.17 2278.18 2301.84 2315.65 2324.68 2333.25 2345.58 2361.23 2379.97 2392.57 2392.87 2384.22 2381.80 2397.20 2409.17 2417.77 2435.88 2452.73 2465.31 2472.30 2478.48 2481.68 2487.36 2496.25 2505.84 2518.42 2531.70 2548.46 2574.97 2592.05 2599.12 2613.30 2634.36 2658.00 2682.72 2701.38 2716.27 2735.42 2747.51 2761.76 2781.61 2795.99 2808.33 2826.49 2847.45 2869.82 2895.29 2923.04 2949.84 2971.15 2985.83 2997.89 3008.85 3026.69 3045.14 3064.99 3090.54 3140.82 3182.36 3216.05 3255.62 3302.60 3342.52 3388.67 3440.62 3467.43 3479.63 3479.64 3469.09 3463.71 3459.22 3454.24 3448.47 3441.78 3435.29 3435.23 3426.33 3406.82 3383.71 3345.54 3316.95 3289.18 3259.29 3232.83 3210.29 3190.53 3170.49 3149.94 3136.02 3130.14 3128.00 3123.34 3115.96 3107.88 3099.42 3090.56 3081.99 3074.02 3067.68 3062.32 3056.78 3051.53 3043.81 3036.85 3032.21 3030.06 3029.88 3029.39 3028.21 3026.38 3025.10 3025.55 3027.07 3028.25 3029.09 3028.86 3026.37 3022.91 3022.65 3025.02 3026.10 3027.94 3034.00 3040.02 3042.90 3045.93 3051.94 3061.60 3074.29 3087.64 3101.02 3115.65 3131.56 3146.41 3153.34 3151.25 3158.21 3170.20 3179.82 3182.97 3183.81 3189.81 3214.46 3260.28 3300.56 3339.11 3359.71 3357.64 3346.55 3355.43 3383.65 3423.61 3470.03 3501.86 3471.75 3425.65 3382.79 3340.22 3303.58 3279.42 3255.46 3230.95 3207.00 3177.00 3156.00 3140.58 3126.42 3108.73 3102.00 3102.17 3093.43 3071.61 3047.55 3038.01 3038.55 3044.37 3051.90 3054.55 3056.97 3059.39 3057.61 3053.47 3054.88 3069.63 3086.29 3094.36 3092.94 3100.59 3116.32 3138.43 3167.40 3188.10 3189.73 3190.55 3189.73 3193.08 3197.72 3198.18 3198.36 3195.02 3171.39 3133.03 3082.71 3038.61 3017.92 3013.40 2997.95 2975.88 2955.49 2911.51 2870.98 2851.85 2858.64 2879.52 2898.65 2901.68 2900.03 2915.18 2926.09 2946.10 2986.50 3001.59 2969.78 2931.50 2903.36 2890.20 2878.42 2863.00 2846.95 2832.20 2820.06 2820.16 2815.88 2805.21 2787.40 2769.36 2757.91 2733.82 2707.85 2691.26 2674.01 2642.85 2609.70 2578.79 2555.15 2532.38 2512.82 2486.09 2456.21 2426.18 2392.80 2368.10 2346.08 2328.78 2315.21 2302.05 2286.41 2269.20 2256.20 2243.66 2232.86 2225.35 2217.90 2209.94 2196.00 2170.00 2151.39 2139.25 2122.12 2104.75 2083.90
2324.33 2328.50 2339.94 2363.38 2405.59 2423.04 2435.46 2461.08 2508.86 2561.80 2605.66 2636.10 2637.34 2630.07 2631.76 2645.91 2649.54 2631.98 2604.39 2568.12 2529.79 2494.83 2465.51 2445.38 2432.21 2409.56 2382.93 2381.13 2371.54 2341.38 2311.34 2274.79 2229.13 2197.77 2177.80 2166.06 2155.52 2142.00 2117.13 2090.34 2073.22 2060.95 2069.94 2087.05 2111.74 2136.99 2154.80 2174.95 2198.57 2224.31 2249.30 2270.41 2281.98 2290.95 2301.90 2317.97 2329.03 2343.40 2352.22 2349.04 2340.79 2345.12 2361.13 2376.54 2380.34 2394.09 2406.72 2420.52 2431.01 2442.32 2452.34 2462.42 2475.46 2488.93 2503.35 2518.89 2537.55 2557.04 2565.82 2582.37 2605.96 2629.69 2655.51 2681.47 2704.19 2721.41 2735.46 2746.57 2760.99 2778.17 2802.03 2831.00 2854.64 2878.33 2907.32 2939.98 2971.40 2998.57 3017.23 3014.38 3020.88 3038.00 3055.80 3078.29 3102.54 3141.69 3190.84 3225.12 3260.21 3301.85 3348.38 3384.29 3417.22 3433.33 3436.43 3439.66 3464.41 3464.05 3456.84 3453.11 3448.90 3442.91 3434.87 3424.21 3415.22 3415.94 3412.57 3404.38 3366.21 3324.04 3289.93 3253.64 3225.75 3203.98 3184.95 3166.71 3148.57 3134.81 3127.66 3123.82 3118.99 3110.96 3101.48 3091.71 3082.83 3075.43 3068.44 3061.69 3054.94 3048.10 3040.85 3032.42 3025.25 3020.34 3017.03 3018.68 3020.21 3020.65 3020.28 3019.90 3020.68 3022.46 3023.58 3024.15 3024.06 3021.81 3017.58 3015.60 3017.23 3018.58 3020.18 3025.13 3029.54 3032.80 3036.88 3044.67 3055.86 3068.50 3080.61 3092.90 3109.67 3128.50 3140.84 3145.08 3142.94 3149.65 3160.78 3169.83 3172.70 3178.04 3198.23 3236.23 3273.82 3307.97 3335.12 3324.67 3315.74 3318.92 3327.60 3349.68 3396.90 3447.70 3494.83 3501.17 3463.76 3415.90 3365.88 3333.37 3316.01 3294.05 3265.72 3229.76 3179.26 3149.85 3133.84 3121.89 3105.63 3091.47 3088.25 3080.25 3058.48 3043.26 3034.29 3029.77 3031.28 3039.01 3042.76 3043.79 3043.72 3040.39 3035.18 3032.88 3040.78 3057.25 3064.73 3065.48 3073.12 3085.34 3106.67 3128.16 3146.59 3168.16 3172.22 3165.42 3166.26 3169.61 3162.07 3151.94 3139.50 3131.36 3123.05 3080.58 3026.23 2997.82 2992.94 2978.91 2956.08 2930.47 2892.47 2859.21 2835.14 2834.79 2846.81 2866.34 2871.68 2882.46 2909.08 2912.34 2926.15 2967.38 3001.43 2980.71 2944.76 2911.33 2886.61 2873.51 2861.84 2843.83 2824.32 2807.45 2798.38 2792.90 2785.08 2772.81 2754.53 2742.92 2722.28 2698.31 2681.91 2658.13 2626.46 2595.52 2566.48 2544.65 2520.18 2490.08 2468.56 2443.56 2413.06 2376.90 2349.67 2328.51 2309.84 2294.22 2279.48 2265.94 2255.82 2245.14 2229.11 2217.76 2210.85 2205.26 2199.19 2182.68 2152.79 2129.03 2121.32 2104.71 2084.10 2061.43
2333.05 2340.25 2350.94 2374.03 2415.51 2426.19 2441.50 2477.94 2531.88 2581.33 2626.92 2662.25 2670.47 2666.90 2669.61 2675.90 2671.42 2656.54 2624.99 2594.58 2558.49 2518.17 2487.10 2465.27 2452.82 2433.41 2415.76 2411.01 2392.60 2362.35 2333.12 2299.89 2254.75 2220.22 2195.27 2178.93 2166.67 2155.66 2141.70 2114.08 2086.45 2066.92 2070.63 2090.35 2107.90 2127.42 2152.91 2163.01 2177.53 2200.07 2220.65 2235.52 2248.50 2258.36 2266.98 2279.49 2290.21 2301.99 2298.90 2295.64 2297.52 2304.59 2317.67 2329.03 2337.56 2351.84 2364.19 2375.87 2388.62 2401.98 2416.04 2427.75 2441.53 2455.58 2470.83 2488.73 2509.39 2524.89 2542.35 2568.74 2596.28 2625.67 2653.74 2677.86 2694.72 2707.30 2728.36 2750.04 2772.42 2797.60 2835.98 2875.61 2903.94 2924.18 2952.45 2983.16 3013.51 3037.71 3056.28 3047.57 3059.26 3079.41 3097.26 3117.84 3145.56 3188.04 3231.64 3269.35 3301.59 3345.12 3384.99 3400.65 3404.71 3403.06 3400.16 3404.98 3431.76 3453.83 3449.23 3445.08 3440.90 3433.83 3424.40 3412.41 3396.68 3380.27 3367.16 3367.22 3366.39 3348.57 3320.93 3281.39 3242.26 3212.23 3184.55 3162.71 3144.91 3132.07 3124.52 3118.69 3112.20 3103.58 3093.54 3083.37 3074.44 3067.65 3061.51 3055.25 3048.24 3040.54 3032.49 3023.81 3015.01 3009.14 3005.04 3007.44 3010.64 3012.97 3013.99 3014.44 3015.44 3017.19 3018.28 3018.69 3018.47 3016.49 3012.42 3009.62 3010.64 3011.97 3013.43 3017.27 3019.94 3023.36 3028.68 3036.89 3047.51 3058.86 3070.65 3084.11 3103.17 3123.62 3134.66 3136.96 3135.64 3142.16 3151.75 3158.92 3161.66 3181.04 3223.44 3270.04 3310.90 3335.63 3322.81 3296.86 3296.47 3303.76 3312.34 3331.54 3382.96 3436.50 3478.93 3516.27 3491.85 3443.84 3399.71 3372.28 3347.32 3314.38 3276.22 3230.62 3180.26 3145.04 3126.63 3112.62 3099.14 3085.62 3075.72 3067.53 3052.35 3037.73 3029.02 3023.80 3023.42 3026.80 3031.25 3031.11 3028.50 3027.92 3025.81 3020.23 3019.80 3027.80 3034.14 3035.22 3043.39 3049.88 3069.71 3092.21 3120.58 3147.82 3150.47 3139.78 3132.78 3135.06 3130.36 3119.90 3104.76 3089.50 3074.59 3043.13 2997.36 2968.96 2956.27 2946.08 2927.89 2904.15 2871.51 2842.50 2824.24 2822.56 2819.23 2828.68 2843.76 2870.57 2900.66 2903.22 2921.94 2964.49 3001.88 2990.55 2958.65 2923.32 2889.38 2861.78 2849.11 2832.07 2813.80 2798.69 2781.03 2767.89 2767.82 2759.30 2740.11 2725.24 2705.37 2680.50 2659.12 2635.75 2607.02 2579.02 2553.47 2529.08 2506.67 2482.07 2453.97 2425.95 2393.78 2362.64 2335.30 2313.37 2295.55 2279.16 2266.20 2256.60 2250.30 2236.32 2214.54 2204.39 2198.09 2193.60 2187.86 2167.22 2132.02 2100.31 2090.65 2071.76 2051.30 2027.29
2347.47 2353.84 2362.39 2385.51 2414.05 2427.97 2448.39 2494.31 2545.94 2599.79 2645.22 2679.04 2699.36 2700.09 2695.84 2684.86 2672.64 2665.65 2656.65 2634.89 2595.02 2544.10 2506.35 2485.11 2469.25 2450.99 2435.16 2422.79 2403.72 2378.69 2350.61 2316.57 2273.60 2238.96 2213.94 2193.52 2178.93 2164.93 2155.66 2130.84 2099.74 2076.81 2072.84 2098.83 2121.91 2121.27 2138.23 2153.98 2163.89 2177.49 2190.53 2207.06 2222.29 2238.47 2245.51 2249.92 2256.79 2263.38 2262.11 2262.25 2267.58 2269.27 2275.31 2289.96 2308.11 2322.89 2337.17 2350.92 2365.34 2378.88 2388.54 2396.13 2407.55 2422.09 2438.14 2456.96 2478.19 2496.79 2523.23 2555.27 2584.39 2610.29 2634.38 2655.43 2668.09 2697.45 2750.13 2783.93 2808.30 2838.56 2874.87 2907.12 2928.94 2940.70 2955.27 2970.47 2990.37 3017.48 3040.59 3064.31 3093.92 3122.14 3148.04 3164.60 3184.36 3226.42 3269.92 3309.87 3344.38 3377.88 3389.11 3381.16 3377.69 3377.09 3372.02 3376.68 3400.69 3437.11 3448.70 3436.59 3429.16 3420.72 3410.61 3397.33 3379.04 3359.48 3341.23 3325.62 3316.13 3326.86 3336.79 3320.32 3286.95 3252.47 3217.33 3181.94 3146.56 3128.32 3119.02 3111.55 3103.67 3094.42 3084.16 3074.49 3065.78 3058.68 3052.82 3047.39 3040.93 3033.23 3025.25 3016.89 3008.25 3000.88 2997.54 2997.50 3001.19 3004.57 3006.72 3007.88 3008.97 3010.50 3011.53 3011.90 3011.79 3010.26 3007.28 3004.96 3005.71 3006.31 3006.98 3009.74 3012.36 3016.78 3022.88 3030.57 3038.99 3045.52 3058.36 3079.12 3098.96 3116.24 3126.06 3127.52 3127.51 3134.29 3142.08 3144.87 3150.21 3184.79 3242.77 3287.12 3310.10 3318.43 3294.38 3277.81 3283.04 3291.60 3300.78 3319.24 3368.78 3414.52 3456.64 3503.99 3514.93 3478.42 3438.64 3397.32 3357.84 3316.21 3275.85 3227.81 3180.89 3152.07 3130.09 3113.96 3098.47 3081.87 3069.84 3063.71 3052.23 3033.88 3020.68 3016.25 3016.12 3017.63 3019.00 3020.69 3020.06 3018.75 3017.07 3010.97 3004.74 3001.84 3003.64 3005.28 3011.93 3019.22 3039.13 3069.66 3103.01 3132.42 3134.86 3117.70 3103.99 3098.09 3097.02 3084.05 3071.93 3059.37 3037.83 3004.45 2972.18 2942.35 2919.01 2903.70 2891.97 2877.35 2856.22 2833.69 2817.99 2818.54 2811.84 2814.44 2833.21 2866.77 2890.95 2904.15 2929.76 2966.96 3001.78 2996.97 2969.76 2934.20 2898.87 2865.44 2838.08 2815.45 2797.76 2785.43 2767.17 2747.12 2744.87 2737.19 2719.07 2701.95 2681.16 2658.50 2636.28 2613.66 2588.20 2561.94 2535.14 2504.57 2480.48 2460.67 2440.06 2414.07 2382.01 2348.53 2321.45 2298.70 2282.71 2268.49 2256.98 2247.63 2240.65 2222.57 2200.39 2192.02 2186.90 2181.69 2174.26 2151.19 2114.40 2074.62 2057.34 2038.43 2017.68 1994.76
2366.03 2370.32 2376.36 2395.65 2416.15 2439.19 2466.53 2511.59 2557.90 2608.49 2652.84 2692.55 2718.21 2712.68 2695.85 2678.24 2663.61 2656.35 2651.64 2636.06 2602.95 2563.78 2530.48 2507.19 2490.31 2473.73 2457.73 2440.89 2415.75 2390.22 2361.97 2329.98 2294.99 2258.45 2231.90 2208.25 2191.65 2175.43 2161.79 2139.53 2113.13 2088.03 2074.21 2084.58 2107.31 2124.31 2130.92 2138.59 2146.54 2156.30 2167.20 2181.07 2207.41 2236.32 2240.45 2230.98 2225.49 2231.98 2238.06 2243.55 2249.97 2253.15 2260.43 2274.09 2289.05 2307.73 2325.76 2339.13 2354.33 2371.02 2383.93 2391.03 2397.83 2406.24 2417.67 2430.03 2448.31 2473.02 2501.82 2530.91 2557.63 2584.79 2612.53 2634.33 2664.12 2722.49 2789.63 2827.57 2848.39 2867.28 2881.20 2888.08 2895.23 2905.11 2917.92 2927.64 2938.19 2959.17 2989.73 3028.86 3081.64 3135.19 3185.07 3209.88 3228.51 3258.86 3296.41 3343.98 3381.12 3386.92 3376.09 3366.85 3361.46 3358.56 3352.30 3351.68 3373.96 3427.55 3464.98 3429.07 3413.85 3403.67 3393.74 3379.46 3358.17 3339.86 3326.35 3313.08 3299.99 3291.19 3301.19 3321.67 3303.88 3272.53 3245.03 3216.13 3168.08 3126.70 3110.73 3100.78 3093.23 3084.87 3075.35 3066.13 3057.93 3050.53 3044.15 3038.51 3032.42 3024.95 3017.27 3010.03 3002.75 2996.31 2992.03 2988.61 2991.77 2995.63 2998.78 3000.62 3001.64 3002.76 3003.48 3003.92 3004.09 3003.19 3001.87 3000.92 3001.38 3000.99 3000.77 3003.22 3007.67 3013.83 3020.06 3026.80 3032.93 3036.68 3053.28 3076.52 3094.37 3107.19 3115.36 3117.33 3119.97 3126.23 3131.55 3129.75 3141.85 3181.73 3224.73 3257.19 3274.01 3276.58 3265.62 3264.56 3272.77 3281.22 3291.44 3311.45 3356.75 3399.37 3441.65 3486.80 3523.11 3502.58 3459.36 3418.98 3381.25 3334.60 3287.99 3235.15 3189.44 3163.01 3140.81 3121.50 3102.27 3081.89 3064.85 3056.66 3052.46 3035.40 3015.59 3007.56 3006.86 3008.99 3008.36 3008.47 3007.77 3007.27 3005.83 2999.45 2991.70 2986.03 2982.53 2981.22 2985.80 2998.40 3019.29 3053.03 3087.29 3117.11 3124.92 3106.19 3087.86 3074.82 3066.27 3057.93 3046.66 3033.38 3008.53 2979.75 2952.77 2920.95 2892.81 2877.40 2865.51 2848.25 2828.95 2822.17 2813.48 2816.26 2809.17 2811.42 2834.52 2864.89 2883.21 2908.76 2942.39 2977.05 3008.85 3005.99 2979.83 2944.20 2909.29 2877.19 2847.26 2818.06 2794.00 2775.88 2758.12 2734.32 2717.54 2712.44 2694.40 2678.69 2657.08 2632.31 2610.38 2589.35 2568.09 2545.89 2515.96 2482.33 2456.56 2437.67 2418.66 2397.34 2370.44 2339.39 2305.40 2282.34 2268.88 2256.55 2244.51 2237.15 2225.84 2206.37 2188.58 2182.82 2178.36 2170.05 2156.91 2125.39 2087.75 2055.20 2033.38 2015.74 1994.72 1974.23
2387.91 2388.94 2388.70 2402.08 2430.59 2455.78 2482.78 2524.05 2574.12 2625.24 2670.68 2710.14 2721.05 2705.35 2682.48 2660.30 2644.08 2631.78 2619.36 2606.82 2587.95 2565.03 2544.13 2520.50 2504.30 2489.53 2473.56 2454.40 2426.24 2400.80 2371.88 2342.25 2314.45 2279.99 2251.83 2226.17 2205.85 2190.63 2173.37 2152.31 2126.53 2104.71 2091.66 2085.57 2092.47 2113.29 2130.00 2136.93 2140.59 2144.85 2154.64 2170.38 2193.88 2218.72 2208.23 2204.53 2212.37 2223.64 2235.26 2245.71 2253.58 2261.29 2272.51 2285.26 2298.73 2314.08 2331.41 2346.53 2362.40 2377.30 2391.52 2399.81 2407.14 2413.86 2420.47 2422.73 2430.85 2450.29 2473.75 2500.28 2529.82 2560.49 2601.56 2649.91 2690.98 2744.15 2800.11 2844.79 2866.74 2863.93 2857.55 2859.98 2868.35 2884.29 2903.46 2912.47 2920.73 2936.74 2963.71 2996.55 3052.76 3127.43 3197.41 3244.80 3275.88 3303.12 3333.36 3377.18 3401.26 3386.70 3370.28 3358.55 3350.61 3344.62 3337.26 3330.42 3344.12 3409.83 3461.25 3416.41 3387.69 3377.28 3370.66 3357.00 3334.46 3319.28 3309.61 3299.35 3289.16 3280.82 3275.31 3286.84 3284.94 3266.38 3243.13 3218.84 3187.39 3135.63 3100.72 3086.71 3080.66 3074.96 3067.98 3059.83 3052.02 3045.03 3038.20 3030.66 3022.84 3015.15 3007.92 3001.65 2995.73 2990.04 2987.07 2982.74 2982.01 2985.99 2990.41 2993.20 2994.22 2994.77 2994.72 2995.49 2996.02 2995.88 2995.98 2996.70 2997.09 2995.95 2995.08 2997.82 3004.22 3012.21 3019.17 3025.68 3032.09 3039.88 3055.53 3074.30 3087.72 3097.00 3104.63 3109.08 3113.80 3118.44 3121.04 3117.73 3132.12 3172.48 3197.06 3217.23 3233.29 3239.03 3247.25 3257.98 3265.69 3272.26 3279.98 3301.65 3362.98 3418.30 3459.30 3502.01 3539.68 3523.83 3480.66 3442.52 3401.92 3351.86 3297.91 3245.34 3205.54 3178.71 3154.31 3132.87 3111.66 3087.38 3064.86 3047.52 3041.19 3029.63 3008.33 2997.83 2997.38 3000.95 3000.38 2996.80 2994.67 2993.13 2990.18 2983.69 2977.99 2973.07 2967.47 2961.19 2962.68 2977.40 3000.43 3033.84 3067.82 3098.84 3118.85 3107.90 3083.71 3068.31 3057.09 3046.57 3031.06 3011.91 2991.47 2965.62 2934.79 2902.41 2871.42 2855.01 2845.45 2825.59 2806.78 2802.71 2804.78 2811.07 2807.31 2811.05 2833.77 2860.59 2882.76 2914.02 2955.45 2989.97 3013.10 3000.57 2969.77 2937.28 2917.75 2895.50 2862.27 2826.69 2793.17 2770.34 2749.99 2726.72 2703.30 2682.94 2668.15 2652.40 2632.17 2607.28 2585.34 2566.26 2550.50 2529.06 2497.93 2463.85 2434.46 2413.99 2395.53 2376.18 2355.31 2324.63 2290.57 2266.05 2255.31 2244.84 2230.38 2222.51 2210.41 2192.77 2179.84 2175.87 2172.47 2159.66 2134.47 2103.84 2072.44 2042.59 2021.17 2006.96 1989.41 1971.52
2406.83 2407.52 2403.51 2414.78 2450.09 2471.96 2494.02 2536.35 2591.53 2638.02 2684.33 2720.79 2714.93 2693.36 2671.50 2644.81 2622.76 2607.68 2596.08 2585.90 2574.31 2559.74 2545.16 2523.66 2508.49 2496.07 2483.18 2460.08 2432.64 2409.06 2379.08 2351.11 2324.12 2296.61 2272.89 2246.53 2221.16 2203.72 2184.92 2163.90 2139.74 2121.17 2112.39 2101.18 2094.86 2103.45 2118.41 2131.89 2136.79 2140.94 2145.63 2156.80 2169.77 2180.80 2187.37 2198.97 2211.96 2225.91 2240.31 2252.83 2260.41 2267.43 2281.29 2296.79 2312.51 2327.52 2342.71 2358.62 2374.28 2388.38 2398.95 2408.28 2416.37 2424.30 2431.12 2434.84 2436.28 2440.50 2452.22 2474.18 2509.23 2547.14 2600.20 2658.53 2704.17 2762.22 2805.91 2837.14 2854.38 2852.40 2845.95 2851.08 2860.90 2877.06 2897.53 2913.69 2926.35 2941.09 2964.12 2991.41 3034.00 3107.86 3198.82 3259.95 3303.73 3345.23 3377.57 3417.56 3416.86 3386.52 3364.95 3350.28 3340.01 3331.90 3324.11 3315.33 3316.22 3357.44 3408.80 3385.40 3352.35 3337.85 3340.23 3324.02 3304.89 3296.65 3291.68 3286.23 3279.30 3271.82 3263.68 3252.70 3243.41 3231.76 3221.28 3212.59 3186.67 3140.73 3095.92 3076.74 3068.96 3065.14 3061.05 3055.26 3048.52 3041.58 3034.24 3025.53 3015.62 3006.95 3000.11 2993.57 2987.14 2981.90 2981.81 2979.38 2973.46 2974.40 2980.80 2985.27 2987.09 2986.65 2986.22 2987.33 2988.44 2989.21 2990.27 2992.30 2993.12 2991.23 2989.22 2992.63 3000.18 3009.53 3017.91 3025.58 3033.08 3042.34 3056.19 3070.83 3080.68 3087.82 3095.80 3102.57 3108.16 3111.56 3112.65 3112.49 3124.79 3158.09 3181.66 3200.23 3216.35 3231.68 3245.84 3255.64 3261.16 3264.58 3270.99 3292.41 3359.07 3414.92 3465.06 3510.72 3540.38 3513.23 3467.72 3424.22 3383.18 3340.16 3297.30 3256.08 3222.93 3194.69 3171.79 3155.88 3140.77 3105.45 3071.94 3045.36 3027.57 3019.64 3003.52 2988.25 2988.26 2993.50 2995.20 2988.55 2982.73 2980.50 2974.15 2966.70 2963.73 2960.82 2954.55 2945.06 2941.75 2956.85 2984.05 3013.45 3047.18 3081.01 3113.13 3115.40 3086.53 3059.49 3034.72 3024.29 3014.91 2994.85 2971.50 2946.14 2921.25 2890.87 2864.61 2838.14 2825.15 2806.99 2798.08 2789.48 2792.94 2801.51 2801.26 2807.82 2830.84 2861.41 2888.11 2922.94 2960.71 2993.51 3002.67 2979.34 2942.01 2910.00 2902.70 2901.09 2869.35 2827.41 2793.06 2759.52 2734.24 2712.71 2691.12 2663.37 2641.02 2626.75 2612.36 2591.26 2568.58 2552.20 2535.54 2507.51 2476.59 2444.47 2415.71 2389.05 2373.19 2354.61 2332.79 2307.15 2276.60 2252.57 2236.06 2230.64 2217.21 2206.88 2195.72 2180.36 2166.37 2162.34 2159.10 2148.04 2119.90 2092.80 2066.61 2040.14 2016.53 2003.16 1995.01 1981.42
2421.44 2425.37 2422.60 2428.99 2461.01 2489.69 2511.86 2550.97 2604.85 2650.89 2692.90 2721.51 2707.28 2680.76 2651.77 2627.44 2609.77 2595.27 2581.02 2572.61 2565.12 2552.08 2537.05 2523.21 2508.27 2497.53 2488.94 2467.85 2439.32 2415.27 2386.99 2360.61 2336.70 2314.98 2296.58 2273.10 2242.61 2217.40 2197.52 2177.36 2154.80 2135.70 2121.70 2110.28 2106.50 2113.64 2124.60 2139.69 2143.11 2146.98 2148.88 2152.94 2158.52 2170.50 2184.28 2198.53 2211.80 2225.43 2240.29 2255.45 2266.78 2275.25 2287.80 2301.48 2315.46 2328.50 2342.38 2358.12 2374.07 2388.76 2401.36 2412.80 2423.11 2431.76 2440.07 2445.92 2451.36 2452.71 2451.93 2462.12 2496.93 2536.52 2583.01 2632.70 2684.55 2747.30 2792.37 2811.89 2830.11 2846.16 2845.71 2853.98 2862.14 2878.30 2897.72 2914.91 2930.91 2949.96 2974.88 3002.84 3035.49 3100.38 3191.56 3257.96 3302.19 3348.32 3391.98 3438.32 3425.23 3382.40 3356.28 3339.53 3327.63 3318.07 3310.23 3303.02 3296.01 3303.83 3340.67 3337.02 3320.67 3302.72 3301.54 3293.70 3282.21 3275.04 3271.22 3269.47 3266.12 3260.51 3253.10 3243.40 3229.43 3210.55 3191.41 3178.22 3161.45 3132.94 3099.88 3079.72 3066.65 3059.17 3054.73 3050.47 3045.22 3038.63 3030.65 3021.10 3010.85 3001.64 2994.31 2987.06 2978.59 2970.92 2965.90 2961.86 2961.53 2961.46 2969.22 2976.35 2978.91 2978.58 2978.90 2980.03 2981.36 2983.00 2984.90 2987.34 2988.44 2986.16 2983.45 2987.64 2995.65 3005.66 3015.86 3024.88 3032.91 3042.09 3053.73 3065.67 3074.28 3081.93 3090.06 3096.66 3101.67 3104.37 3106.90 3113.39 3127.05 3158.90 3194.45 3207.99 3219.52 3233.94 3245.20 3252.85 3257.44 3259.74 3265.28 3286.22 3347.71 3404.53 3452.12 3494.03 3533.23 3520.47 3469.31 3422.39 3382.81 3343.47 3307.27 3275.78 3247.02 3218.94 3202.26 3194.08 3172.40 3119.61 3072.44 3041.80 3019.79 3007.52 2997.61 2982.69 2978.36 2984.55 2988.03 2982.14 2972.82 2966.36 2959.31 2951.26 2952.09 2951.22 2946.94 2938.57 2932.28 2944.48 2968.83 2995.91 3031.41 3068.67 3105.06 3117.09 3085.99 3042.92 3012.95 2996.74 2986.16 2971.41 2950.08 2928.95 2908.19 2886.86 2859.96 2827.91 2805.78 2785.48 2776.26 2771.72 2778.76 2792.08 2788.37 2801.25 2834.21 2869.82 2892.95 2930.10 2968.13 2992.19 2975.93 2950.14 2917.34 2890.71 2881.39 2875.73 2850.03 2808.99 2775.26 2740.82 2709.42 2689.69 2668.47 2646.43 2627.03 2606.45 2590.60 2577.68 2560.32 2542.06 2518.65 2486.38 2451.38 2420.76 2395.14 2367.31 2348.35 2332.86 2312.33 2287.05 2259.01 2238.28 2224.32 2210.49 2202.17 2190.59 2181.50 2164.73 2150.68 2144.08 2137.75 2130.58 2111.05 2086.48 2062.16 2045.54 2019.79 2004.43 2006.25 1996.53
2431.47 2443.20 2446.19 2443.04 2464.45 2502.25 2529.73 2566.59 2618.02 2663.24 2704.64 2725.52 2706.64 2672.72 2644.63 2624.68 2608.75 2589.34 2573.05 2567.53 2564.06 2551.08 2536.17 2528.31 2515.02 2499.50 2488.56 2472.25 2443.98 2422.95 2400.27 2373.39 2350.00 2332.59 2319.23 2299.21 2269.85 2237.39 2212.47 2192.98 2172.38 2150.58 2133.65 2120.77 2112.31 2114.44 2119.95 2131.65 2137.84 2145.33 2148.95 2154.75 2162.69 2172.48 2186.80 2201.82 2213.21 2224.03 2237.60 2254.15 2268.25 2279.90 2291.39 2303.59 2315.62 2326.79 2339.77 2354.34 2369.65 2384.72 2399.53 2413.96 2427.28 2438.14 2447.24 2455.60 2463.13 2470.19 2473.42 2473.81 2497.64 2525.83 2559.56 2600.17 2663.66 2721.64 2757.16 2780.48 2810.80 2838.66 2854.39 2867.39 2873.08 2885.43 2898.50 2910.16 2926.70 2951.53 2981.38 3012.67 3048.77 3102.77 3163.82 3236.07 3288.96 3322.32 3369.17 3426.75 3418.28 3377.01 3349.06 3329.83 3315.43 3304.06 3295.98 3289.90 3283.32 3276.45 3282.30 3289.05 3284.18 3275.50 3267.04 3265.65 3264.55 3256.96 3249.89 3248.97 3247.93 3244.12 3237.99 3229.11 3216.61 3200.44 3182.27 3163.70 3145.54 3127.02 3108.35 3089.19 3072.52 3061.04 3052.92 3045.85 3039.59 3033.35 3026.51 3017.67 3007.43 2997.81 2989.42 2980.78 2970.93 2960.03 2949.22 2940.64 2943.04 2946.68 2955.90 2966.20 2970.66 2971.23 2972.36 2973.53 2974.62 2976.73 2979.44 2981.80 2982.79 2980.59 2978.14 2983.01 2991.31 3001.40 3012.38 3022.50 3031.27 3040.30 3049.89 3059.08 3067.74 3078.71 3087.54 3092.51 3095.69 3097.95 3104.73 3116.47 3130.52 3160.97 3192.17 3205.51 3217.98 3230.68 3240.62 3247.50 3253.00 3257.84 3264.45 3284.29 3335.39 3386.86 3433.58 3480.28 3525.09 3524.09 3486.95 3449.96 3409.46 3374.18 3345.23 3317.71 3291.17 3260.09 3245.19 3222.68 3179.72 3125.07 3078.64 3046.33 3022.66 3005.06 2989.48 2976.81 2969.52 2974.15 2978.03 2973.22 2964.23 2954.15 2942.87 2938.75 2941.80 2942.22 2940.28 2934.76 2927.50 2933.86 2953.11 2979.93 3019.42 3055.80 3091.19 3105.34 3076.35 3037.88 3008.36 2986.20 2967.96 2955.96 2937.15 2912.66 2888.45 2866.87 2839.39 2810.33 2785.95 2763.22 2749.06 2749.38 2753.29 2767.69 2771.40 2796.62 2839.20 2863.73 2885.84 2924.54 2968.02 2978.94 2947.76 2919.29 2895.91 2871.93 2857.91 2838.97 2812.05 2778.51 2745.88 2714.27 2683.90 2662.48 2644.38 2632.55 2616.07 2597.21 2573.96 2558.97 2548.50 2527.23 2497.14 2464.49 2436.09 2404.93 2376.60 2351.58 2328.85 2309.19 2290.32 2265.43 2241.68 2223.80 2210.81 2193.64 2182.26 2170.49 2158.11 2141.73 2133.72 2124.34 2113.88 2112.07 2099.77 2077.18 2065.17 2053.52 2020.92 2006.78 2007.21 1993.78
2431.24 2453.39 2469.47 2466.39 2472.89 2509.16 2548.86 2581.43 2623.00 2669.81 2714.44 2725.67 2702.45 2671.03 2655.74 2643.88 2628.91 2604.42 2582.86 2569.96 2566.83 2560.41 2547.26 2533.20 2520.88 2507.61 2495.83 2481.48 2459.05 2440.44 2417.41 2388.97 2365.63 2346.78 2333.58 2317.15 2289.98 2260.11 2234.04 2212.24 2191.61 2166.99 2146.16 2132.26 2122.05 2117.17 2118.01 2121.57 2127.88 2135.39 2146.98 2154.71 2163.69 2176.00 2188.90 2202.49 2215.11 2226.42 2238.43 2252.60 2265.02 2274.63 2284.66 2296.95 2310.34 2319.60 2333.40 2349.53 2364.23 2379.58 2395.28 2412.70 2429.04 2442.99 2454.76 2464.60 2472.76 2480.39 2489.14 2494.76 2500.09 2511.99 2532.66 2571.72 2629.91 2680.06 2725.43 2761.86 2793.55 2819.78 2842.58 2868.45 2880.58 2888.68 2897.74 2901.81 2920.81 2951.10 2989.38 3029.43 3070.90 3118.93 3166.93 3212.38 3266.43 3303.92 3339.00 3396.12 3417.08 3379.66 3348.61 3324.62 3306.27 3292.90 3284.41 3277.96 3270.48 3262.09 3255.12 3253.43 3257.41 3254.79 3242.54 3240.06 3243.92 3241.87 3237.38 3231.97 3226.90 3222.56 3217.54 3210.55 3199.94 3186.51 3171.82 3157.18 3142.97 3128.96 3113.34 3095.77 3078.30 3064.22 3053.88 3044.30 3034.53 3025.93 3020.02 3013.54 3004.52 2994.14 2984.05 2974.31 2963.50 2951.36 2939.34 2928.88 2925.52 2930.80 2943.04 2955.33 2961.94 2963.75 2965.20 2966.90 2968.14 2970.32 2973.44 2975.99 2976.74 2975.30 2973.99 2978.92 2987.11 2996.16 3007.02 3018.74 3028.98 3037.99 3045.76 3051.99 3061.17 3075.52 3086.05 3090.74 3093.07 3099.30 3110.80 3123.70 3134.94 3149.95 3175.07 3196.93 3210.04 3222.60 3233.17 3241.21 3248.88 3258.17 3269.58 3290.43 3333.88 3377.24 3417.25 3460.01 3502.39 3514.79 3504.62 3473.97 3441.40 3412.18 3382.63 3349.95 3318.77 3285.07 3263.76 3234.25 3185.70 3141.22 3101.92 3066.03 3034.83 3011.56 2989.66 2969.41 2960.86 2962.01 2966.04 2962.20 2956.23 2949.16 2935.06 2926.43 2929.95 2929.21 2929.12 2927.90 2921.31 2921.63 2936.88 2962.55 3000.03 3038.25 3076.61 3099.92 3082.84 3046.57 3014.05 2988.90 2967.98 2951.96 2925.20 2893.55 2865.46 2836.41 2806.32 2777.84 2764.89 2742.32 2732.64 2732.65 2732.01 2742.94 2759.87 2788.64 2830.55 2852.52 2876.82 2904.38 2945.68 2953.37 2926.84 2891.01 2869.74 2846.02 2826.70 2806.27 2778.98 2747.30 2711.63 2682.00 2658.95 2641.55 2628.33 2620.17 2605.98 2589.74 2574.06 2549.21 2523.60 2505.12 2475.91 2444.92 2417.00 2393.18 2366.69 2337.03 2313.81 2290.15 2266.94 2243.30 2223.54 2209.23 2194.50 2180.07 2167.11 2150.88 2134.17 2121.17 2113.92 2102.23 2092.60 2088.90 2078.19 2069.81 2059.26 2037.83 2011.14 1997.80 1991.34 1969.77
2428.71 2448.68 2476.88 2488.72 2487.19 2515.66 2561.30 2594.13 2628.98 2677.16 2721.78 2730.27 2696.47 2669.03 2662.97 2655.78 2640.62 2620.21 2601.02 2575.68 2564.77 2562.83 2558.35 2544.18 2530.58 2521.86 2508.13 2493.10 2476.35 2457.20 2431.88 2405.57 2379.86 2356.35 2340.04 2325.77 2303.65 2279.42 2253.00 2227.90 2205.95 2182.48 2159.41 2143.05 2132.26 2126.46 2129.04 2132.73 2144.79 2160.08 2167.18 2161.30 2163.51 2174.82 2185.37 2199.21 2211.95 2222.70 2234.02 2246.33 2257.36 2262.26 2269.16 2280.47 2299.33 2312.02 2327.61 2357.32 2377.09 2389.41 2397.28 2410.22 2426.27 2443.53 2460.87 2472.54 2480.23 2487.21 2495.77 2504.47 2510.15 2513.42 2517.23 2535.53 2579.39 2638.91 2696.26 2738.04 2772.60 2794.56 2822.97 2852.40 2875.81 2886.81 2887.13 2891.43 2914.30 2959.67 3022.09 3067.87 3097.13 3145.17 3194.93 3244.66 3268.36 3275.40 3291.21 3328.37 3399.12 3393.83 3358.57 3325.78 3301.20 3285.86 3276.63 3268.61 3258.99 3248.73 3239.44 3231.89 3226.66 3223.58 3219.06 3216.05 3218.12 3223.89 3230.17 3223.82 3215.09 3204.51 3196.58 3190.26 3181.87 3170.62 3158.60 3147.76 3137.75 3126.20 3111.63 3095.64 3079.88 3065.68 3053.73 3042.74 3031.97 3021.58 3013.32 3006.94 2998.82 2988.95 2977.65 2966.40 2955.71 2943.99 2932.57 2923.13 2917.09 2919.81 2932.14 2944.36 2952.45 2955.97 2957.55 2959.70 2961.63 2964.03 2966.93 2969.59 2970.64 2970.60 2970.53 2974.75 2981.76 2989.36 3000.26 3014.13 3026.15 3035.13 3041.41 3045.74 3057.55 3072.99 3084.05 3089.71 3095.51 3105.59 3118.67 3132.43 3145.06 3158.57 3175.19 3190.46 3201.36 3212.93 3224.38 3234.48 3245.82 3260.60 3278.59 3302.99 3341.75 3380.22 3417.75 3452.49 3476.65 3485.50 3487.57 3464.91 3433.98 3400.71 3368.04 3323.87 3285.64 3249.06 3226.07 3219.51 3195.36 3161.06 3126.02 3092.42 3051.31 3017.58 2992.42 2966.84 2953.59 2950.87 2951.62 2951.12 2947.24 2941.95 2930.38 2918.91 2916.39 2916.95 2916.40 2916.88 2913.68 2915.29 2930.55 2950.45 2980.79 3018.64 3059.19 3088.53 3090.73 3061.82 3030.03 2995.27 2965.54 2942.50 2914.50 2883.40 2851.33 2808.91 2776.12 2756.86 2747.03 2722.88 2714.99 2715.64 2716.68 2728.87 2751.24 2787.32 2824.45 2845.40 2868.24 2887.07 2917.88 2920.34 2898.82 2867.63 2834.78 2811.03 2791.88 2773.30 2747.36 2719.06 2688.98 2664.53 2649.60 2636.42 2622.19 2608.53 2592.12 2579.22 2568.27 2544.65 2507.58 2476.16 2449.58 2422.39 2394.90 2373.64 2351.08 2322.82 2298.20 2273.96 2249.99 2228.10 2209.27 2194.75 2182.07 2172.12 2159.88 2139.26 2117.27 2104.08 2093.21 2080.09 2073.12 2066.37 2062.18 2054.91 2031.84 2010.75 1992.32 1977.74 1963.16 1940.11
2428.10 2441.43 2467.71 2496.33 2505.21 2522.88 2566.58 2602.48 2638.47 2682.68 2724.85 2742.12 2707.26 2677.44 2664.52 2657.46 2645.71 2628.93 2609.43 2587.81 2576.80 2572.30 2567.66 2553.71 2534.20 2524.44 2512.35 2496.19 2484.28 2466.94 2441.69 2416.81 2388.89 2365.11 2347.19 2333.91 2317.60 2297.39 2270.49 2241.09 2215.73 2195.12 2173.19 2157.18 2145.96 2138.89 2142.52 2152.13 2169.04 2185.79 2178.08 2167.50 2169.36 2176.29 2182.43 2195.29 2213.64 2227.43 2238.19 2248.77 2263.88 2281.04 2294.95 2306.39 2326.61 2338.00 2354.22 2385.66 2411.76 2426.97 2436.77 2438.56 2439.72 2447.42 2463.34 2477.09 2485.81 2491.52 2499.39 2508.75 2516.65 2522.13 2526.20 2528.71 2548.18 2597.34 2662.67 2712.31 2746.05 2775.78 2804.33 2835.69 2866.18 2873.14 2874.95 2885.86 2915.73 2981.14 3055.61 3111.08 3138.21 3180.27 3230.67 3273.80 3259.48 3251.34 3257.61 3283.49 3349.52 3397.97 3373.13 3335.25 3302.17 3284.12 3272.47 3262.19 3250.82 3238.93 3228.48 3220.00 3213.13 3207.78 3204.02 3201.52 3199.94 3201.49 3209.76 3214.23 3208.99 3194.46 3181.55 3170.41 3161.07 3152.80 3144.59 3136.65 3128.55 3118.13 3104.53 3089.61 3075.56 3062.39 3050.48 3039.28 3028.63 3019.07 3010.29 3002.85 2993.21 2980.37 2968.42 2956.67 2946.60 2937.30 2927.71 2919.95 2914.28 2913.08 2921.73 2932.97 2942.11 2947.51 2949.97 2952.29 2954.75 2957.29 2960.08 2962.58 2964.35 2965.57 2966.51 2969.97 2974.98 2981.65 2992.93 3008.57 3021.96 3030.82 3035.73 3040.67 3055.63 3070.09 3079.84 3087.15 3096.85 3108.24 3122.21 3137.25 3151.37 3165.23 3177.98 3188.69 3197.15 3207.64 3218.64 3230.21 3244.65 3265.58 3290.76 3319.32 3358.85 3396.40 3422.86 3436.98 3440.68 3447.86 3457.62 3445.51 3409.54 3370.82 3332.77 3287.36 3248.42 3218.38 3194.77 3176.47 3160.07 3143.05 3115.44 3083.69 3056.56 3028.96 2997.91 2971.81 2953.90 2946.47 2941.76 2939.81 2940.69 2935.56 2921.78 2912.05 2907.64 2905.10 2903.51 2906.28 2911.71 2919.93 2929.58 2937.84 2958.21 2996.27 3033.24 3061.24 3074.10 3064.87 3031.80 2987.62 2951.48 2926.14 2899.85 2869.06 2840.30 2798.98 2763.02 2742.58 2728.71 2706.66 2699.00 2700.31 2707.64 2722.77 2745.59 2790.79 2819.14 2831.87 2850.70 2868.77 2883.25 2877.42 2859.38 2833.95 2803.14 2782.39 2762.03 2744.87 2722.23 2698.50 2672.81 2652.15 2639.76 2624.55 2612.51 2599.23 2585.52 2574.09 2559.02 2536.93 2506.53 2475.66 2439.56 2403.16 2373.03 2355.17 2333.94 2307.44 2284.48 2260.51 2236.92 2212.63 2196.18 2182.72 2169.69 2161.06 2147.25 2121.21 2092.49 2086.00 2074.84 2064.34 2059.22 2052.55 2046.58 2029.60 2005.45 1987.86 1965.93 1948.04 1925.75 1900.30
2430.73 2438.51 2457.74 2488.62 2517.69 2536.79 2573.00 2606.96 2640.40 2685.07 2736.62 2761.84 2732.40 2701.10 2682.44 2670.90 2658.63 2641.86 2623.24 2608.77 2599.80 2594.85 2586.14 2568.97 2548.91 2532.34 2518.87 2506.16 2492.16 2473.42 2453.32 2431.52 2405.90 2383.90 2369.86 2356.56 2342.65 2319.89 2293.85 2265.07 2237.60 2214.64 2193.47 2177.76 2166.84 2155.78 2154.82 2167.92 2180.73 2182.57 2177.92 2174.44 2176.97 2184.65 2193.42 2208.74 2227.46 2243.90 2259.88 2279.76 2299.23 2314.29 2332.45 2353.34 2377.32 2379.69 2385.56 2413.90 2447.87 2471.70 2482.90 2484.46 2481.09 2479.79 2479.31 2483.25 2488.99 2495.08 2502.33 2512.27 2522.61 2531.26 2538.83 2544.76 2550.17 2567.61 2619.91 2682.00 2726.69 2760.74 2792.31 2824.41 2854.73 2867.13 2869.00 2888.05 2924.76 2994.16 3072.15 3132.00 3173.27 3224.36 3273.84 3276.25 3243.85 3235.55 3236.80 3257.26 3310.41 3367.12 3379.74 3342.95 3309.39 3288.19 3273.21 3260.93 3248.58 3235.23 3223.27 3213.54 3205.68 3199.52 3194.89 3191.36 3188.53 3186.31 3185.77 3189.92 3189.32 3181.25 3170.02 3157.10 3142.19 3133.37 3128.57 3122.64 3115.04 3105.34 3093.33 3079.43 3065.69 3052.80 3041.74 3033.43 3025.89 3020.02 3011.22 3001.88 2991.58 2974.99 2961.82 2945.94 2935.69 2929.12 2922.44 2915.87 2910.62 2906.57 2910.70 2920.38 2930.55 2938.24 2942.37 2945.41 2947.92 2949.95 2952.35 2954.50 2957.18 2959.63 2961.35 2964.01 2967.29 2973.53 2984.96 3000.95 3015.27 3024.74 3028.92 3036.76 3052.43 3065.30 3073.45 3081.91 3094.03 3105.71 3118.73 3133.45 3149.59 3165.06 3177.97 3188.19 3196.57 3208.88 3221.74 3235.30 3254.65 3289.61 3318.59 3347.53 3390.84 3410.25 3410.79 3410.23 3404.42 3410.18 3423.73 3428.92 3395.48 3352.88 3314.70 3276.53 3239.95 3209.02 3182.07 3155.02 3128.12 3107.09 3090.08 3075.92 3066.61 3046.10 3014.89 2984.27 2961.60 2949.46 2941.41 2934.52 2934.74 2932.25 2923.21 2909.96 2900.01 2892.97 2887.21 2890.72 2906.75 2927.93 2928.79 2927.51 2933.66 2965.72 3000.97 3022.84 3035.69 3037.40 3007.71 2964.39 2929.58 2904.79 2881.21 2852.15 2823.89 2782.64 2740.54 2724.20 2708.69 2692.06 2686.37 2690.46 2703.51 2722.14 2750.40 2782.42 2804.77 2816.45 2831.28 2846.65 2853.22 2843.71 2829.37 2810.83 2782.92 2759.51 2740.44 2718.38 2697.94 2678.95 2657.41 2636.93 2621.83 2608.42 2601.19 2591.28 2579.45 2564.65 2544.71 2518.39 2491.78 2465.61 2433.87 2400.70 2368.54 2338.97 2322.57 2301.28 2275.78 2249.19 2227.38 2198.81 2179.17 2167.45 2155.31 2142.97 2124.29 2093.50 2069.36 2067.92 2057.84 2051.42 2045.72 2036.58 2024.90 2003.93 1982.96 1959.77 1936.38 1912.79 1885.28 1866.42
2436.96 2439.76 2453.80 2479.06 2511.66 2543.93 2574.95 2607.86 2641.89 2684.04 2740.24 2778.63 2766.99 2736.41 2712.48 2695.33 2685.23 2667.99 2652.51 2638.38 2628.99 2623.70 2616.20 2602.78 2582.84 2562.37 2544.80 2526.39 2507.53 2490.76 2475.13 2456.94 2437.07 2416.40 2399.70 2385.26 2370.01 2345.91 2318.39 2294.08 2267.17 2240.98 2218.79 2202.97 2189.62 2177.82 2166.38 2172.94 2178.35 2178.46 2179.41 2183.96 2195.15 2207.33 2218.99 2232.42 2245.03 2261.81 2284.87 2311.12 2334.46 2351.04 2374.44 2399.06 2414.28 2419.07 2433.51 2468.42 2501.57 2534.87 2553.08 2557.15 2547.08 2525.46 2509.80 2497.72 2492.86 2497.16 2505.60 2518.27 2530.66 2541.03 2549.79 2558.30 2565.22 2569.82 2593.54 2641.63 2698.37 2749.33 2781.88 2813.95 2842.63 2851.04 2865.22 2895.95 2940.00 3005.04 3081.51 3138.78 3184.34 3248.06 3269.28 3243.15 3225.59 3222.80 3224.36 3235.44 3272.97 3319.37 3367.89 3361.18 3323.26 3296.98 3278.39 3264.14 3251.08 3237.51 3224.29 3212.47 3202.63 3194.86 3189.04 3184.62 3180.75 3177.03 3173.19 3169.98 3167.97 3166.89 3156.96 3143.87 3128.62 3117.29 3109.61 3104.19 3097.94 3091.08 3081.82 3067.72 3055.07 3042.12 3032.68 3031.09 3027.34 3019.83 3009.91 3000.94 2993.62 2975.37 2961.46 2942.32 2926.20 2918.69 2913.91 2909.73 2905.42 2899.51 2898.88 2905.91 2917.04 2928.16 2934.76 2939.01 2941.02 2942.21 2943.82 2945.45 2948.79 2952.49 2955.14 2957.34 2959.48 2966.01 2976.47 2991.18 3006.53 3016.64 3024.20 3036.70 3048.36 3059.08 3065.91 3074.52 3086.23 3089.65 3095.13 3112.04 3138.52 3160.27 3174.90 3186.26 3200.46 3221.82 3236.64 3252.69 3276.78 3316.52 3355.63 3381.06 3385.33 3373.55 3368.04 3368.75 3368.36 3372.99 3388.39 3404.62 3398.52 3369.46 3336.02 3298.16 3254.46 3216.29 3183.49 3154.10 3126.99 3105.06 3087.35 3073.78 3062.08 3048.23 3027.89 2996.29 2967.55 2951.52 2942.40 2933.78 2932.75 2929.81 2924.54 2913.37 2896.54 2882.84 2874.44 2880.72 2900.61 2919.77 2912.16 2911.11 2918.44 2939.75 2963.86 2983.33 3004.92 3016.87 2988.61 2946.95 2913.54 2887.55 2864.27 2837.49 2806.34 2766.33 2722.01 2705.90 2689.90 2677.29 2674.92 2683.82 2703.19 2725.73 2746.79 2758.76 2787.84 2801.84 2817.90 2831.85 2833.66 2824.95 2810.22 2796.71 2773.65 2743.87 2726.11 2699.61 2675.34 2658.56 2645.56 2625.51 2608.45 2595.97 2591.07 2581.53 2568.77 2546.19 2518.56 2498.19 2478.60 2450.69 2418.10 2387.59 2360.68 2332.73 2307.52 2286.51 2265.63 2242.15 2213.30 2182.52 2162.70 2149.35 2133.38 2115.27 2086.51 2058.99 2052.16 2053.47 2042.89 2034.22 2025.50 2015.25 1998.45 1979.73 1956.52 1928.64 1903.12 1879.57 1861.77 1853.87
2446.85 2445.21 2457.01 2477.09 2507.07 2543.94 2579.15 2610.35 2644.07 2684.72 2735.43 2784.14 2806.29 2782.38 2755.89 2735.63 2722.60 2705.66 2687.04 2672.45 2664.65 2659.85 2658.25 2647.25 2624.87 2599.67 2577.52 2553.90 2530.79 2510.38 2492.47 2480.04 2466.62 2448.05 2430.26 2413.21 2395.62 2367.94 2337.49 2316.67 2295.98 2270.23 2245.89 2226.82 2209.71 2195.44 2181.09 2178.32 2180.34 2182.85 2189.04 2202.10 2216.96 2228.98 2240.11 2250.37 2262.93 2284.45 2314.93 2339.36 2365.68 2388.08 2410.61 2423.07 2433.75 2454.86 2480.27 2514.49 2547.62 2572.84 2593.00 2599.29 2596.73 2576.47 2543.65 2517.71 2501.87 2499.04 2511.60 2526.76 2540.03 2549.35 2557.43 2566.81 2577.92 2588.42 2595.56 2618.21 2663.75 2718.21 2766.74 2797.07 2827.35 2846.22 2870.03 2908.66 2962.08 3021.88 3079.88 3131.19 3184.52 3248.26 3244.62 3221.24 3212.79 3210.96 3213.26 3220.26 3243.90 3284.17 3333.74 3370.10 3342.89 3310.91 3287.97 3270.47 3255.88 3242.39 3228.62 3214.87 3202.89 3193.59 3186.36 3180.50 3175.41 3170.61 3165.60 3160.27 3156.81 3154.84 3144.36 3129.14 3114.08 3103.59 3097.10 3088.10 3081.59 3081.02 3073.03 3054.01 3042.46 3029.76 3025.11 3026.92 3021.07 3008.63 2995.70 2984.46 2978.63 2972.54 2958.75 2938.97 2925.70 2914.03 2905.84 2904.90 2903.11 2892.79 2886.23 2890.12 2903.72 2918.47 2927.08 2932.69 2933.88 2933.70 2933.95 2935.37 2939.06 2943.72 2947.10 2949.77 2952.12 2959.25 2968.63 2981.70 2994.69 3005.95 3025.92 3035.12 3042.91 3052.99 3058.49 3065.70 3072.49 3076.12 3090.97 3111.41 3131.04 3154.10 3172.20 3188.86 3219.17 3252.48 3267.23 3283.60 3305.97 3340.07 3358.85 3352.06 3337.83 3328.84 3325.78 3327.11 3334.40 3339.35 3353.64 3371.45 3390.39 3387.59 3350.39 3310.71 3274.07 3245.68 3210.67 3176.06 3144.37 3120.90 3098.97 3074.90 3052.62 3033.91 3024.37 3003.04 2974.01 2953.42 2939.39 2929.35 2929.00 2924.11 2917.31 2904.38 2893.51 2880.14 2868.06 2875.78 2891.69 2906.33 2890.52 2885.07 2904.44 2926.78 2938.44 2952.30 2976.03 2996.46 2979.70 2941.79 2906.37 2875.09 2850.17 2823.01 2791.62 2754.44 2710.45 2690.95 2675.88 2665.80 2666.69 2680.46 2701.81 2719.47 2725.56 2732.56 2764.37 2783.56 2802.54 2814.13 2815.87 2806.49 2789.82 2772.62 2753.32 2729.63 2713.17 2687.22 2658.35 2640.71 2629.05 2613.29 2599.53 2589.60 2577.50 2567.84 2551.61 2527.16 2498.83 2475.48 2457.08 2433.19 2402.64 2372.36 2345.88 2321.38 2297.21 2270.56 2245.86 2225.66 2196.40 2165.64 2146.57 2131.88 2112.58 2090.67 2064.99 2043.75 2037.38 2036.23 2022.52 2012.37 2004.25 1990.22 1972.22 1950.96 1921.18 1897.41 1875.94 1856.59 1854.49 1870.09
2457.68 2455.70 2466.75 2484.02 2511.62 2547.47 2581.45 2616.66 2648.08 2685.79 2735.45 2781.74 2821.61 2819.74 2801.55 2784.63 2771.29 2750.29 2730.47 2715.16 2703.82 2700.66 2701.33 2687.19 2668.63 2646.02 2617.76 2584.50 2558.70 2537.55 2517.89 2505.29 2494.46 2478.84 2460.53 2440.28 2413.60 2383.73 2356.17 2337.98 2316.82 2295.95 2270.72 2248.52 2231.12 2214.68 2198.36 2191.65 2193.05 2196.99 2206.30 2220.36 2232.76 2244.53 2259.01 2274.71 2303.64 2342.74 2363.24 2371.57 2398.14 2416.16 2436.30 2453.12 2471.99 2492.58 2519.43 2558.90 2586.69 2601.44 2615.91 2626.66 2622.19 2600.87 2573.14 2542.08 2520.59 2506.21 2518.12 2535.73 2547.88 2556.16 2563.27 2573.07 2587.27 2602.66 2614.54 2624.76 2649.63 2688.14 2740.32 2781.70 2815.62 2845.73 2890.18 2936.18 2980.66 3042.78 3093.87 3138.44 3185.36 3238.45 3231.78 3212.77 3205.81 3203.38 3203.51 3206.08 3219.19 3256.41 3307.42 3350.07 3354.87 3325.39 3299.77 3278.83 3262.33 3247.83 3233.04 3217.67 3204.01 3193.57 3185.54 3178.77 3172.29 3165.68 3159.05 3152.27 3146.82 3142.43 3134.54 3118.41 3104.62 3096.07 3090.89 3081.18 3070.98 3068.96 3058.21 3041.76 3031.07 3014.30 2998.59 2995.09 2999.88 2992.73 2976.60 2961.35 2949.18 2950.99 2946.54 2935.63 2926.17 2915.46 2905.74 2903.12 2900.85 2888.85 2874.21 2875.01 2894.50 2915.54 2920.37 2925.92 2926.55 2924.60 2922.99 2923.79 2927.77 2933.02 2936.04 2939.77 2944.20 2953.28 2963.25 2973.84 2985.35 3004.00 3025.92 3033.86 3040.17 3048.35 3052.53 3059.88 3074.37 3096.16 3120.29 3134.49 3138.79 3155.76 3174.08 3198.71 3224.61 3247.21 3275.96 3310.55 3343.85 3374.64 3351.59 3321.32 3313.08 3306.27 3298.91 3292.78 3298.84 3306.81 3321.60 3337.80 3359.84 3365.94 3329.55 3289.98 3256.75 3232.71 3215.66 3196.05 3172.70 3153.33 3134.78 3104.92 3072.74 3035.62 3012.62 2993.99 2975.57 2961.09 2944.45 2928.05 2917.75 2908.01 2903.61 2889.86 2882.75 2877.24 2863.56 2867.05 2876.62 2890.46 2878.77 2865.93 2883.69 2908.21 2915.45 2923.68 2944.50 2967.34 2962.39 2932.35 2900.37 2871.77 2846.48 2819.77 2784.80 2745.17 2705.37 2680.98 2665.54 2657.50 2662.79 2675.04 2686.37 2702.04 2700.00 2707.04 2739.06 2761.89 2782.28 2787.97 2786.87 2779.32 2762.27 2740.33 2723.56 2706.82 2694.09 2669.60 2646.73 2628.11 2617.56 2604.16 2596.26 2583.43 2565.26 2550.04 2530.26 2508.69 2481.61 2451.19 2432.00 2413.96 2386.07 2358.31 2330.89 2306.92 2284.37 2262.06 2239.70 2211.36 2179.92 2151.06 2132.53 2114.02 2100.46 2082.91 2053.90 2033.42 2017.73 2008.60 1995.42 1988.47 1981.52 1966.89 1942.37 1913.76 1889.30 1872.81 1858.27 1853.19 1871.26 1890.40
2466.03 2470.01 2483.67 2501.65 2527.96 2558.66 2583.08 2622.12 2653.36 2687.48 2739.58 2791.46 2836.81 2854.90 2844.63 2827.77 2813.19 2789.91 2776.85 2761.30 2748.44 2746.39 2742.10 2727.33 2708.96 2686.82 2657.09 2622.90 2587.71 2562.72 2546.42 2532.29 2514.62 2495.46 2471.76 2445.97 2422.65 2395.83 2370.44 2352.67 2332.46 2310.26 2290.30 2271.28 2258.56 2239.55 2218.18 2206.31 2207.10 2212.84 2222.21 2238.47 2257.39 2273.88 2291.81 2318.08 2367.15 2413.11 2409.80 2407.71 2429.24 2444.53 2460.78 2479.47 2501.21 2524.09 2560.67 2591.17 2614.26 2632.19 2646.87 2656.93 2651.37 2638.01 2612.16 2573.53 2544.58 2527.14 2533.96 2544.39 2554.17 2560.69 2567.34 2578.60 2594.98 2614.15 2631.67 2643.93 2654.33 2674.53 2712.20 2762.40 2795.32 2833.40 2894.14 2931.36 2981.33 3026.59 3086.88 3128.58 3166.29 3215.61 3225.82 3208.61 3201.39 3196.26 3192.39 3191.58 3197.60 3221.47 3266.31 3309.15 3333.42 3330.16 3306.89 3286.38 3269.75 3253.25 3236.39 3219.45 3204.69 3193.57 3184.91 3177.36 3169.90 3161.90 3153.40 3144.73 3136.08 3127.93 3122.36 3114.29 3104.93 3095.42 3083.69 3071.79 3058.19 3052.66 3045.40 3028.39 3014.52 2994.30 2968.97 2952.39 2959.86 2960.80 2943.28 2930.15 2919.16 2919.91 2931.33 2934.67 2928.83 2920.26 2909.42 2902.45 2896.43 2885.84 2867.85 2864.61 2883.49 2916.85 2917.30 2919.49 2919.57 2915.25 2911.89 2911.67 2915.47 2920.48 2922.03 2925.49 2937.64 2949.19 2960.00 2970.41 2990.78 3014.56 3024.88 3030.33 3036.87 3044.65 3050.88 3063.68 3081.45 3097.55 3117.58 3135.39 3147.31 3159.29 3179.25 3205.83 3224.95 3245.17 3271.55 3311.34 3364.31 3383.82 3341.71 3309.92 3300.12 3292.55 3284.44 3274.11 3266.28 3268.22 3281.29 3298.64 3321.22 3333.89 3303.57 3261.89 3234.09 3212.66 3193.97 3177.81 3160.69 3147.70 3133.65 3113.59 3089.46 3053.72 3011.31 2976.22 2958.40 2958.14 2938.50 2917.21 2903.30 2894.87 2891.22 2878.87 2870.61 2869.18 2858.41 2855.45 2862.45 2874.77 2867.84 2852.00 2862.96 2885.75 2893.49 2899.24 2915.53 2931.77 2931.05 2912.69 2892.75 2868.18 2844.48 2820.03 2784.43 2744.97 2704.41 2673.75 2656.75 2648.78 2655.25 2660.19 2668.11 2679.44 2676.05 2683.68 2711.28 2739.27 2761.60 2766.25 2762.54 2752.48 2732.76 2710.82 2693.71 2679.79 2668.90 2649.10 2631.19 2619.20 2612.55 2599.22 2590.29 2577.71 2555.61 2535.09 2513.33 2485.02 2457.91 2434.28 2412.76 2392.87 2369.06 2343.88 2317.11 2293.96 2272.50 2249.13 2227.88 2201.48 2173.03 2146.61 2127.15 2104.57 2087.33 2070.02 2042.77 2021.47 1998.81 1984.96 1976.58 1966.49 1953.65 1936.74 1909.18 1886.81 1870.47 1857.49 1853.81 1861.90 1892.14 1922.10
2478.93 2488.87 2508.16 2519.80 2539.19 2572.49 2597.43 2627.22 2656.78 2689.48 2737.50 2789.02 2837.74 2869.21 2854.63 2828.35 2810.59 2799.86 2794.87 2790.83 2785.24 2782.08 2769.16 2750.20 2725.15 2697.10 2662.77 2627.54 2592.40 2569.46 2554.92 2538.20 2515.17 2491.58 2466.05 2445.02 2431.29 2409.62 2386.92 2366.08 2343.52 2321.87 2310.33 2294.39 2279.81 2259.37 2238.42 2223.48 2222.24 2228.79 2245.16 2267.15 2289.16 2310.20 2344.39 2383.02 2424.56 2450.80 2446.30 2443.35 2460.29 2474.54 2485.82 2503.71 2526.62 2552.06 2600.06 2637.88 2652.29 2656.47 2667.91 2675.27 2674.00 2670.08 2647.27 2612.86 2584.13 2562.50 2560.17 2559.34 2560.99 2564.74 2572.48 2587.30 2608.57 2628.58 2646.22 2658.48 2667.04 2676.95 2696.63 2737.64 2775.62 2817.72 2872.68 2901.15 2947.78 3009.20 3068.90 3109.86 3154.52 3204.82 3223.90 3199.20 3189.68 3182.70 3177.90 3176.79 3180.59 3193.06 3223.79 3266.30 3292.20 3307.92 3309.75 3292.81 3276.77 3257.29 3237.83 3219.63 3204.30 3192.79 3183.49 3174.87 3166.13 3156.99 3147.62 3137.87 3127.94 3117.64 3110.92 3107.17 3096.37 3086.16 3076.87 3059.89 3040.22 3019.33 3009.04 2997.22 2974.89 2955.69 2937.95 2928.13 2930.20 2933.90 2926.79 2914.25 2905.28 2902.06 2909.42 2922.92 2922.90 2918.53 2906.13 2898.52 2888.52 2879.92 2862.87 2856.23 2868.74 2908.85 2921.67 2915.01 2913.15 2906.50 2901.25 2900.45 2903.48 2906.90 2906.05 2917.93 2940.03 2952.86 2967.29 2980.57 2999.46 3019.77 3025.59 3029.41 3035.88 3048.81 3058.28 3071.68 3081.01 3086.71 3101.68 3118.79 3134.97 3154.25 3176.91 3204.29 3233.28 3258.16 3277.31 3314.83 3365.86 3384.00 3337.91 3300.69 3289.07 3280.93 3272.12 3261.39 3250.42 3243.59 3246.12 3261.08 3286.14 3298.23 3266.37 3233.22 3209.85 3190.52 3171.34 3155.95 3140.57 3126.43 3112.53 3096.63 3076.75 3055.14 3011.84 2961.40 2935.22 2936.88 2927.98 2904.39 2887.35 2879.05 2873.08 2866.07 2857.36 2857.67 2853.19 2844.14 2848.71 2858.89 2856.38 2837.47 2846.28 2866.63 2879.00 2878.90 2885.70 2898.63 2906.99 2900.21 2881.53 2859.91 2835.45 2811.40 2779.13 2739.04 2701.01 2669.63 2647.16 2636.78 2639.34 2642.67 2649.47 2656.49 2655.06 2664.11 2688.33 2716.82 2743.68 2750.54 2747.50 2736.58 2709.70 2685.81 2666.71 2652.25 2642.05 2630.74 2616.16 2605.41 2596.17 2585.45 2578.91 2565.53 2542.63 2518.50 2490.05 2460.42 2436.75 2419.61 2401.78 2374.91 2349.26 2325.73 2305.29 2282.96 2260.77 2233.48 2210.28 2185.63 2161.54 2143.23 2126.28 2109.34 2086.45 2056.56 2027.38 2007.35 1984.58 1966.59 1956.97 1944.16 1925.46 1903.09 1881.35 1867.71 1858.05 1854.22 1859.55 1873.95 1912.32 1948.92
